6.0000000000 -0.0092012053 -0.1343847662
6.0000000000 -0.2493538260 -0.2437793016
6.0000000000 -0.4281387031 -0.1599892527
6.0000000000 -0.0813526139 0.2624433935
6.0000000000 0.0082307970 0.0387722589
6.0000000000 0.3226832747 0.3840988576
6.0000000000 0.2714464068 0.2032852322
6.0000000000 0.3964731097 0.0912045762
6.0000000000 0.2054612339 0.0293098018
6.0000000000 0.2003639787 -0.3027549684
6.4067606926 0.1991482824 -0.5924046040
6.8407683372 0.1782501042 -0.5990127921
6.2429728508 0.0824104622 -0.6195343137
6.6300473213 -0.0483515151 -0.6230900288
6.8647909164 -0.0711819082 -0.6209065914
6.1577348709 -0.0915520340 -0.6182292104
7.0785870552 -0.1282645315 -0.6116590500
6.5265331268 -0.2020018697 -0.5914437175
6.2365207672 -0.0412419662 0.6236339211
7.3270134926 -0.0567416623 0.6223981977
6.8799390793 -0.0827011466 0.6194928288
6.6684141159 -0.1801468134 0.5984374881
7.0806741714 -0.2448434234 0.5750048757
6.4780020714 -0.3034089804 0.5463832021
6.9354043007 -0.3669102490 0.5059328079
6.3874278069 -0.4007101059 0.4796248674
6.1510872841 -0.4266457558 0.4566755295
6.7239031792 -0.4520455897 0.4315890968
7.1208205223 -0.5430936217 0.3092529476
6.7996730804 -0.5540017486 0.2893038988
6.4145717621 -0.5864712000 0.2159856111
7.0516734123 -0.5969799161 0.1849516332
7.3901524544 -0.6205897927 0.0738095194
7.2340312004 -0.6244093776 -0.0271332171
6.3627724648 -0.6228476763 -0.0515191369
6.7276244164 -0.6158624291 -0.1063645184
7.3309268951 -0.5932522416 -0.1965587437
6.5800118446 -0.5733535886 -0.2487102002
6.8800554276 -0.5242497921 -0.3402104974
6.7044019699 -0.4688372314 -0.4132764935
6.8318758011 -0.3540439308 -0.5150082707
6.3479137421 -0.2854185402 -0.5559904575
6.1831650734 -0.2737049162 -0.5618527532
6.5087175369 0.3943631947 -0.4848336279
6.6862726212 0.4256410003 -0.4576165974
7.1131443977 0.4498840570 -0.4338242114
6.3486676216 0.4880442321 -0.3904167116
6.8483943939 0.5023792982 -0.3717662394
7.3081870079 0.5284367204 -0.3336942792
6.5007033348 0.5527234674 -0.2916954160
7.2200479507 0.5828828812 -0.2255195826
6.6221790314 0.6024295092 -0.1663175374
7.0681810379 0.6066260338 -0.1503593475
6.3807563782 0.6240131855 -0.0344413482
7.1211457253 0.6248305440 -0.0142674660
6.6982660294 0.6249910593 0.0008176278
7.2859544754 0.6245523691 0.0227643922
6.5777225494 0.6044623852 0.1588013768
7.1391587257 0.5956920385 0.1891052425
6.2090764046 0.5661684275 0.2647075057
6.7027816772 0.5587980151 0.2798785567
6.3803219795 0.5140237212 0.3554831445
7.3306841850 0.5071581006 0.3652003407
6.2154870033 0.4845027924 0.3947663307
6.8398118019 0.4466725588 0.4371065497
7.2969470024 0.3716486990 0.5024674535
6.7788119316 0.3103770018 0.5424609184
7.1234436035 0.2951604724 0.5508713722
6.9468636513 0.2358587086 0.5787570477
6.1671147346 0.1365012228 0.6098989844
6.3443007469 0.1271029711 0.6119033098
7.5000004768 0.1929930896 -0.9248338342
7.5000004768 -0.1138636172 -0.9134361148
7.5000004768 -0.3248462081 -0.9263030887
7.5000004768 0.1685360223 0.8336282969
7.5000004768 0.3253647387 0.7350963354
7.5000004768 0.7430280447 0.3963741958
7.5000004768 0.7367170453 0.1262495071
7.5000004768 0.7534228563 -0.2144337744
7.5000004768 0.7565247416 -0.5288287997
7.5000004768 -0.2961140275 -0.7377740145
7.5000004768 -0.5191941857 -0.5923586488
7.5000004768 -0.6813381314 -0.4972382784
7.5000004768 -0.9493696690 0.1297241747
7.5000004768 -0.7029491067 0.5724608898
7.5000004768 -0.5560842156 0.6987273097
7.5000004768 -0.3577509820 0.7295590043
7.5000004768 -0.2048869878 0.8587087393
7.5000004768 -0.0177485161 0.8891934156
7.3216109276 0.0313413776 1.0831408501
7.2450881004 -0.6673676165 1.1669141046
7.3661527634 -0.6652127504 0.8617502451
7.2604689598 -0.7662820220 0.7564392090
7.2410511971 -1.1011119952 0.8041356421
7.3510751724 -0.9581334591 0.5131831169
7.2446241379 -1.2590934627 0.4769559219
7.2291793823 -1.4214185327 -0.0724520169
7.2682313919 -1.0568482876 -0.2104520500
7.3673300743 -1.0267897844 -0.3619994521
7.3294601440 -0.8893176317 -0.6206673384
7.2651143074 0.2603547573 -1.0453438759
7.3359446526 1.0610953569 -0.2275907844
7.2419195175 1.3584433517 -0.0531944657
7.3424658775 1.0120589733 0.3937647939
7.2428569794 1.1966232285 0.6356262042
7.1021046638 0.5776490885 2.1173892758
6.8828573227 -0.2599977008 2.0396212277
7.0276122093 -0.6433651337 2.3821877525
7.1625690460 -0.5920108038 1.7260217799
7.1046066284 -1.5653995910 1.5186234175
6.9080657959 -1.9237400679 1.0733746647
7.0667324066 -2.1997296108 0.8559188598
7.0911312103 -2.2507814404 0.0653258548
7.1006588936 -1.9236679901 -1.0726061641
6.9550800323 -2.0184668052 -1.3121887605
7.0946884155 -1.5840530288 -1.5750439756
7.2197670937 -0.9714813068 -1.1086461555
7.1742773056 0.1970033571 -1.7382780931
6.9520807266 0.5438433385 -2.3355277667
7.0754084587 1.7536216849 -1.5270641944
7.0535244942 2.0807694637 -1.2094887153
7.0558853149 2.2238101991 -0.9007127670
7.1093993187 2.1169154783 -0.4004409690
6.8937792778 2.1144489436 0.1817088458
6.9735093117 2.3949328964 0.5400420704
7.1608018875 1.7215225609 0.6389097053
7.0050921440 2.2654291875 1.0232140650
7.0997519493 1.7845443415 1.2993440339
6.9614734650 1.7584295621 1.6719135517
6.9679694176 0.9720661893 2.2413143754
6.7614917755 -0.0249433502 1.3051722831
6.6014127731 -0.1612380314 1.0149439740
6.5713424683 -0.4829293222 0.8926019781
6.8556895256 -1.1227633205 1.5098651706
6.7051548958 -0.9476784372 0.5317582274
6.6343045235 -0.9599347955 0.3725147277
6.6323623657 -1.0161494116 0.1692074292
6.6756320000 -1.0198668356 -0.0566448710
6.7676072121 -1.1859438265 -0.6158243860
6.6659564972 -0.7869400765 -0.6313359263
6.8653554916 -1.4148807494 -1.3343012666
6.6527132988 0.0920610527 -1.0167488312
6.8103528023 0.9554545984 -1.2640889118
6.7761144638 1.1135459727 -0.8179653307
6.6593060493 0.9196663528 -0.4306389828
6.7658114433 1.2683895265 -0.3909860347
6.6176414490 1.0044493936 -0.2316443451
6.6750731468 1.0190399877 0.0578823556
6.5246882439 0.9870563881 0.1164232898
6.5467038155 0.9671438550 0.2648806986
6.5267581940 0.9110998449 0.3988371878
6.6846456528 0.9199417296 0.4810621706
6.6529607773 0.8297476168 0.5943882154
6.7368693352 0.5280200353 1.0715484428
6.5382165909 0.3806375953 0.9236422751
6.8347764015 0.5464743975 1.6552388074
6.4217391014 -0.0450398508 0.9980446790
6.3033385277 -0.8016064346 0.6225746686
6.5120978355 -0.8366431617 0.5301454401
6.4552946091 -0.9275112160 0.3491600537
6.2690653801 -1.0961172439 -0.1574733638
6.2534322739 -1.1124706897 -0.3411413921
6.4468531609 -0.7827298618 -0.6109612738
6.3814749718 -0.6336893487 -0.7758031710
6.5102558136 0.2328063069 -0.9622056014
6.3117976189 0.3681410313 -0.9284513652
6.2119054794 0.6710520125 -1.1729486535
6.4147129059 0.5722682565 -0.8206680365
6.1997723579 0.8904264456 -1.0993908140
6.3256049156 0.8000467011 -0.5613289247
6.2785520554 0.9661643039 -0.4774388917
6.4737324715 0.9844648028 -0.0841318215
6.3276247978 0.9735250270 0.0489230699
6.3465580940 0.9641163072 0.1918859260
6.1796727180 1.2979282632 0.8010608000
6.3742547035 0.6563742831 0.7543459532
6.3586688042 0.3417030844 0.9319411308
6.0494856834 0.5877847263 2.0625267216
6.0476326942 0.2446862020 2.1351086331
6.1508655548 -0.0713603105 1.6872977957
6.0654668808 -0.3939906992 2.0605765816
6.1538925171 -1.0114086004 1.3308229576
6.0009284019 -1.5784528362 1.5336013470
5.9074506760 -1.6631340392 1.0052489835
6.0521330833 -1.9151476787 0.9494043827
6.1126132011 -1.8058321902 0.5793702996
6.0680842400 -2.0599992561 0.3468435540
6.0374279022 -2.0786234140 -0.6258556406
6.0811567307 -1.8438509170 -0.8738203337
5.9331202507 -1.7888758443 -1.0130450200
5.9209423065 -1.5582416383 -1.2628519323
6.1117959023 0.3654440148 -1.8653430692
6.0529623032 0.7269291810 -2.0079829375
5.8783564568 0.7245734690 -1.6373583810
5.9536581039 1.7275521849 -1.2384524923
6.0120844841 1.9688532063 -0.9815919627
5.8236927986 1.3588345321 -0.5678960901
6.1529169083 1.6004420934 -0.5017623344
5.9002060890 1.8546252195 -0.4462825932
5.9823589325 2.1862708783 -0.0289211448
5.8979864120 1.8757431153 0.2773749762
5.9542880058 2.0320325393 0.6297927858
5.8794956207 1.6181395999 0.7812268073
6.0632748604 1.6176132274 1.3471596896
6.0358333588 1.1889836935 1.8199157863
5.9729590416 0.8988812133 1.9766997802
5.7567687035 0.0309616617 1.1282944330
5.5858907700 -0.0363002805 0.8943837646
5.6347484589 -0.2568838575 0.8658762871
5.7883577347 -0.5670818799 1.1451872841
5.5806870461 -0.5100633369 0.7329351577
5.7847714424 -0.7964677229 0.9757613049
5.7084226608 -0.7241352087 0.6354027448
5.7359700203 -0.8947564480 0.5447948747
5.5832643509 -0.7944282299 0.4102778562
5.7223763466 -0.9548324128 0.3058997937
5.5840125084 -0.8681377222 0.2152146831
5.7990717888 -1.3304020926 0.1026973031
5.5680465698 -0.8872988942 0.0021797380
5.7161331177 -0.9717322843 -0.1563485363
5.5716419220 -0.7529903117 -0.4724172467
5.6524000168 0.1537102842 -0.8829298156
5.6019535065 0.6042328933 -0.6680782566
5.6645073891 0.7711046603 -0.4386055872
5.6148147583 0.8473092867 -0.3137959849
5.6008586884 0.8948295501 -0.1005861206
5.8150796890 1.4230527999 -0.0308880381
5.5040068626 0.8063412860 0.3112078749
5.5748243332 0.6864766566 0.5668925667
5.7209448814 0.7142200544 0.6976976607
5.4680552483 0.5797938979 0.6398990703
5.6109008789 0.5304283375 0.7307656096
5.7612328529 0.5960292448 0.9811934948
5.5992441177 0.3453889562 0.8310825223
5.7842407227 0.3808136018 1.1978331042
5.2414803505 0.2366696918 1.0245897046
5.1407294273 0.1023354107 1.5062102598
5.2539110184 -0.1095731860 1.0021901009
5.1679115295 -0.3697372669 1.3268739639
5.3354964256 -0.3668477520 0.7607192148
5.4106554985 -0.5172097071 0.7032540032
5.1508946419 -0.9417949936 1.1163503892
5.2706098557 -0.7318582586 0.6166301290
5.4335727692 -0.7141791575 0.4953983300
5.3426852226 -0.7693091763 0.3661989528
5.3429527283 -0.8384667422 0.1528856140
5.2430701256 -1.0452313351 0.0284652943
5.1801171303 -1.2845850164 -0.2950577230
5.3196730614 -0.6320289602 -0.5787688455
5.4657998085 0.1795533319 -0.8448305256
5.2128987312 0.5203165937 -1.0442905684
5.2144927979 0.7625431401 -0.8738560219
5.3885359764 0.6778915956 -0.5508152560
5.3033857346 0.8009895873 -0.3694599111
5.3708944321 0.8696576527 -0.0098375141
5.4517893791 0.8540697596 0.1411676035
5.2707614899 0.8750625589 0.3866982190
5.3890953064 0.7251486135 0.4870560241
5.3065376282 0.6388628838 0.6002268734
5.3340525627 0.5038010580 0.6757120180
4.9497137070 0.0731408055 1.8148259840
4.9748177528 -1.6074015939 0.9559936933
5.0894670486 -1.6289238772 0.5874357550
4.9759459496 -1.8621438239 -0.1902127513
5.1046471596 -1.4992186458 -0.7407759557
4.8600473404 -1.0851357720 -0.9523946785
4.9187703133 -1.0639350532 -1.3429904727
5.0138750076 0.7266488410 -1.7488171884
5.0638971329 0.9816989410 -1.5256321265
4.9239091873 1.4696555587 -0.9182708827
4.7801523209 1.0130478924 -0.2989518669
4.9585962296 1.8383514317 -0.0371611923
5.1092295647 1.5606178732 0.5456237379
4.8689293861 1.2909851227 0.7406979817
4.9697833061 0.7753293065 1.6927589486
4.5764031410 0.1839951310 0.7325065873
4.5805287361 -0.0305976251 0.7563228087
4.7486891747 -0.1366028123 0.9247002787
4.5904016495 -0.3172342379 0.6913851707
4.4344635010 -0.3587188625 0.6385748367
4.4366106987 -0.5213370746 0.5140798735
4.6815314293 -0.7587584146 0.1394606707
4.4720888138 -0.7285893863 0.0089437138
4.5849723816 -0.7437530518 -0.1502000434
4.4509277344 -0.5736910144 -0.4518811949
4.7109084129 -0.5362668529 -0.6287746375
4.5557847023 0.0609734884 -0.7441237529
4.4630169868 0.2589153415 -0.6815233485
4.4937944412 0.5472465762 -0.4818999047
4.6417322159 0.6227933730 -0.4456863347
4.5783357620 0.7467870481 -0.1178680551
4.7430119514 0.9150827510 -0.0367625427
4.7223281860 0.8318140496 0.1963690948
4.4434757233 0.6926212276 0.2342509434
4.7109632492 0.7521313470 0.3428942804
4.7462620735 0.6978308350 0.6095212414
4.5812015533 0.4148109185 0.6334778816
4.1395740509 0.3509146402 1.2108535134
4.0760388374 -0.0193210629 1.4749403937
4.2640004158 -0.2646153885 0.7728477452
4.2833118439 -0.4588552043 0.6230494861
4.2962393761 -0.7372510564 -0.1393492937
4.3195428848 -0.6343958320 -0.3383365146
4.3182473183 -0.5027083557 -0.5159736813
4.0835537910 0.1845378168 -1.4429442053
4.2552309036 0.1899952065 -0.8178478159
4.1435718536 0.6502042085 -1.0617181521
4.3612027168 0.4401924020 -0.5789162335
4.2959136963 0.7140529644 -0.2325337823
4.1429591179 1.2401692867 -0.1341491081
4.2279753685 0.9171494711 0.0932052679
4.2350172997 0.8272468895 0.3520963991
4.1285018921 1.0648074181 0.7517566326
4.3336672783 0.5375419731 0.4593324854
4.4017262459 0.3811207801 0.6290060507
4.0860710144 0.6544222143 1.2911558424
3.7570836544 0.1030858974 0.7803808557
3.8891587257 -0.1147336111 1.2984225547
3.9577379227 -0.4567331548 1.4443227403
3.9837386608 -1.1699603938 1.0235926947
3.8785877228 -1.1132458624 0.5930989949
4.0378375053 -1.4937750883 0.4087650646
3.9664123058 -1.5279095486 -0.0947196410
4.0459990501 -1.4787723047 -0.4207514370
3.8641839027 -1.1137187167 -0.4523327462
3.8774394989 -0.9453480336 -0.8281063408
3.8642709255 0.5715184952 -1.0580625488
3.9344091415 1.0847472465 -0.9743331741
3.7798602581 0.8469351462 -0.1605774257
3.7347462177 0.6009926778 0.4061621512
3.5593612194 0.1251380365 0.5905115524
3.3973302841 -0.0916997274 0.5802094254
3.5350315571 -0.1605817540 0.5729935111
3.3997120857 -0.2854244930 0.5135524335
3.6156220436 -0.4250752684 0.4529087977
3.6171145439 -0.5873665795 0.2027213651
3.4845583439 -0.5713377242 0.1265468127
3.6946041584 -0.6421772799 0.0586377826
3.5658702850 -0.6002254851 -0.0845116390
3.7135636806 -0.6559526948 -0.1710988880
3.4332458973 -0.5473972230 -0.2104270594
3.6800620556 0.0610259634 -0.6223359500
3.3750290871 0.1235027784 -0.5709418891
3.5697672367 0.5279585639 -0.3006461618
3.4065866470 0.5405785236 -0.2303372589
3.6505053043 0.6185341113 -0.0182157709
3.5731413364 0.5959728992 0.1243402334
3.4773833752 0.5277853816 0.2517736455
3.5025475025 0.4079611014 0.4222814537
3.6537792683 0.3675514615 0.4964174006
3.6896188259 0.2486685689 0.5871924470
3.1366415024 0.2770853540 0.9583119222
3.2353732586 0.0134126528 0.7091365676
3.1150479317 -0.3874047432 0.9858792724
3.1710202694 -0.6138243379 0.6476506930
3.0207107067 -1.1120703944 0.4905109672
3.1349864006 -0.9915037684 0.1473435723
3.1128609180 -0.9941887615 -0.3820597993
3.2584521770 -0.5287918158 -0.3907565799
3.1013679504 -0.7910130172 -0.7570476989
3.2498462200 -0.4230327165 -0.5268189463
3.2130246162 0.3965915822 -0.6573760764
3.2386817932 0.5707363563 -0.4074806162
3.3623874187 0.5779206206 -0.0495425025
3.0695919991 0.9025861632 0.7340372762
3.3634140491 0.3310006137 0.4768473292
2.8973221779 0.0759057795 1.0239905086
2.7930908203 -0.1449487158 0.6783991500
2.7170152664 -0.3157165557 0.4110533505
2.8884861469 -0.8878700577 0.4599394779
2.7834196091 -0.6522292886 0.1344689708
2.7976717949 -0.5502920797 -0.4442908716
2.8303134441 0.1897500045 -0.7876323330
2.7387890816 0.3491682030 -0.4350505228
3.0006320477 1.1567457387 -0.3723317319
2.8691847324 0.9261547352 -0.1520709264
2.6809437275 0.4722894632 -0.0125337832
2.8804843426 0.8913949178 0.3949148429
2.7268331051 0.4139795974 0.3389465298
2.8820381165 0.5372742881 0.8194292858
2.6859245300 0.2030198398 0.4320845128
2.4242959023 0.0536019311 0.4274114322
2.6229012012 -0.4569652462 0.0933877085
2.5748529434 -0.4514364832 -0.0551096774
2.4191582203 -0.4129470890 -0.1225514968
2.6526281834 -0.4176702748 -0.2043319764
2.3322215080 -0.3354939132 -0.2329200998
2.4009850025 0.0253665670 -0.4292048774
2.3296549320 0.2693235753 -0.3083984173
2.4886386395 0.3778367737 -0.2109616003
2.5610074997 0.4432471188 -0.0786865402
2.4662053585 0.1852251873 0.3892542947
2.2717444897 -0.0507060579 0.4526996864
2.1639618874 -0.3007003620 0.5751413000
2.1365151405 -0.6094416307 0.3556955260
2.2667307854 -0.4367722066 0.1497107700
2.2737953663 -0.4524990222 -0.0219728500
2.1102275848 -0.7364146657 -0.1679118163
2.1248867512 -0.5099994454 -0.5201086072
2.1674170494 0.4937919201 -0.4099599434
2.3074917793 0.4073043331 0.1084756769
1.9936786890 0.5768251433 0.6092517729
1.9162123203 0.1251356834 0.7276357511
1.7029607296 -0.2156854590 0.2454755861
1.9672857523 -0.6653647276 0.4749940395
1.8432099819 -0.5665152835 0.0999459881
1.8578474522 -0.5381376398 -0.2865046741
1.8849223852 0.0451214073 -0.6706941216
1.9101535082 0.3604496943 -0.6305155194
1.9599959850 0.7544722478 -0.2922644568
1.6749345064 0.2936346845 0.0821629291
1.8220834732 0.3925159595 0.3509558958
1.6516703367 0.1152255785 0.2793954447
1.6207351685 -0.0470268221 0.2971926907
1.4933624268 -0.2265302867 0.1494610964
1.5424766541 0.2497907256 -0.1300372919
1.1762335300 0.0022416398 0.3547723808
1.2580028772 -0.2668949438 -0.0748658713
1.2196677923 0.0459026615 -0.3065687577
1.0864535570 0.3373945734 -0.2767824237
1.2657451630 0.2473566679 0.1126763688
0.8122116327 -0.0086653448 0.2420726427
0.9581809640 -0.1905640218 0.3735968931
0.7856540084 0.1895620882 0.0949015664
0.6269618869 -0.0735343811 0.1033936589
0.4071860313 -0.0856236525 0.0145357377
0.3559606373 0.0739345091 -0.0222338239
0.5330660939 0.0945268825 0.0510051353
2.4563195705 -0.2557238587 -0.3467227712
5.7408008575 -0.6350803274 -0.8550586274
6.8733811378 -1.2013284648 -1.5947222640
2.8581752777 -0.5151178522 -0.7408594206
4.5112047195 -0.4293151485 -0.5928114078
7.2883791924 -0.5841381550 -0.9082185626
7.0885806084 -1.2820938871 -1.8666719626
1.9123994112 -0.3581073939 -0.6369932859
5.5409293175 -0.4295753996 -0.7624560799
4.3724865913 -0.3481536884 -0.6435982155
6.8771829605 -0.9287482377 -1.7946358112
6.7065324783 -0.5470416207 -0.9434511458
3.7425513268 -0.3763559715 -0.6435380400
4.9572520256 -0.8014902113 -1.6512670342
6.2633700371 -0.4828503425 -1.0182657683
7.1614904404 -0.8360425431 -1.6297720835
2.3025190830 -0.1543745742 -0.3960848879
4.2518701553 -0.3129653558 -0.7889863266
7.0091834068 -0.9157955184 -2.3098761018
5.4200196266 -0.2593842506 -0.8321304610
1.0511261225 -0.1321001450 -0.4313157656
3.7549047470 -0.2184223805 -0.7494038412
5.9077572823 -0.6380115103 -1.8372257643
6.9457325935 -0.5645798995 -2.3078542705
2.8148548603 -0.1711501265 -0.7407522793
6.0473227501 -0.4732205066 -2.0970703910
7.1029062271 -0.4875789441 -2.1354104363
6.4451451302 -0.2700857791 -0.9558942543
4.8854284286 -0.4202502385 -1.5111077034
3.4460694790 -0.1562626600 -0.5642824132
0.7929400802 -0.0388269165 -0.2164395049
4.6351780891 -0.0886157978 -0.7620754371
5.8802003860 -0.1889412106 -1.7908435685
3.1109127998 -0.0931832493 -1.0663076812
4.8196210861 -0.1174210171 -1.2339783055
6.2902598381 -0.1420909654 -1.0355850071
4.9897713661 -0.2736965542 -1.8683703334
1.3961337805 -0.0119328433 -0.2618786329
3.8536019325 -0.0512778412 -1.1565530082
5.3175702095 -0.0436067391 -0.8587082227
6.6819548607 -0.0509622160 -1.0315704080
6.4719338417 0.0471644752 -0.9871651982
7.2250995636 -0.0187480497 -1.4449571517
6.0620536804 -0.0202084174 -2.1088482697
7.3985476494 -0.5262755752 0.9565670490
7.4177489281 0.8952371478 -0.6221317053
7.4352622032 -1.0637426376 0.2154907584
7.4384622574 -0.8439534903 0.6804341674
7.4629259109 0.9977060556 -0.3852433860
7.4719238281 0.3708566129 -0.9943115711
7.4849596024 -0.9277482629 -0.4799026847
7.4944238663 -0.7916278839 -0.6505780220
7.4956064224 -0.6647225022 -0.7750450969
7.4978785515 0.4635009766 -0.8998798728
7.4482684135 -0.0758070946 -1.0766742229
7.4973897934 0.0524287932 -1.0130726099
7.4974884987 -0.6066105366 -0.3547342122
7.4849367142 -0.6601888537 -0.1264866889
7.4631314278 0.3732597232 0.5290050507
7.4326686859 0.0621890053 0.6273794174
7.4178109169 0.2683236301 -0.5662115812
7.4127888680 0.5646728277 0.2697301507
6.0020999908 -0.0674348772 -0.5411449075
6.0646252632 0.3023864031 0.5395322442
6.0719537735 -0.5735024214 -0.2381411195
6.0795106888 0.3311255276 -0.5275287032
6.0084357262 -0.0012997004 0.5651818514
6.0000000000 0.0356277302 -0.3922221363
6.0000000000 0.1896486133 -0.1369176209
6.0000000000 0.0537113398 0.1846932620
6.0000000000 0.3340015411 -0.3930009305
6.0000000000 0.3829832077 -0.2484757304
6.0000000000 0.3589154184 -0.0904384106
6.0000000000 0.5057641268 -0.0152845522
6.0000000000 0.1450680494 0.4468885660
6.0000000000 -0.0120463250 0.3934004307
6.0000000000 -0.1417428404 0.0689017847
6.0000000000 -0.2424527109 0.2301345915
6.0000000000 -0.1900531799 -0.0993086323
6.0000000000 -0.2669498920 0.3748573959
6.0000000000 -0.4246575534 0.1890856922
6.0000000000 -0.3466981053 0.0131766768
6.0000000000 -0.4134907126 -0.3169758916
6.0000000000 -0.1218999475 -0.3930752873
6.7501544952 -0.0127018103 0.6245131493
6.4191069603 -0.1198096946 0.6129509211
7.2259449959 -0.1790934354 0.5986056924
7.3647222519 -0.2806120217 0.5583786368
6.8008403778 -0.3063688278 0.5443099141
7.0947771072 -0.3902072906 0.4878890216
7.3367428780 -0.4357972443 0.4479092062
6.5555768013 -0.4401721358 0.4432844222
6.2962841988 -0.5225038528 0.3428339064
6.5960626602 -0.5495445132 0.2976168990
7.2007889748 -0.5977340937 0.1817595512
6.5263204575 -0.6245414019 -0.0026226679
6.9160032272 -0.6035581231 -0.1617688984
6.3366031647 -0.5798166990 -0.2323790193
7.1347680092 -0.5457110405 -0.3043393195
7.3364553452 -0.4817768037 -0.3978031576
7.0162129402 -0.4715970755 -0.4097641408
7.1664118767 -0.4276677072 -0.4555423260
6.5725674629 -0.3586747348 -0.5117883086
7.3019080162 -0.3214015365 -0.5360043645
7.1267061234 -0.2553521097 -0.5700196028
7.2176575661 -0.0442263000 -0.6233966947
7.0125651360 0.1935416311 -0.5940890908
7.1946668625 0.2772800624 -0.5601255894
6.2233881950 0.3824995458 -0.4940837324
7.3303794861 0.4390860498 -0.4445999861
6.1164031029 0.4658693075 -0.4166248143
6.6710081100 0.5537361503 -0.2891511321
6.9342160225 0.5921077132 -0.1989523470
6.9310431480 0.6245414019 0.0004950713
6.5548529625 0.6245414019 0.0198173784
6.4393124580 0.5731549263 0.2486210018
6.9181485176 0.5430198908 0.3087518513
7.1374330521 0.5163521767 0.3516110480
6.5582427979 0.4840256870 0.3946935236
6.6904301643 0.3976904452 0.4821460545
6.4534912109 0.3484567702 0.5184053779
7.0599918365 0.0249101352 0.6240451932
6.5390396118 0.0073299841 0.6247190237
6.3112463951 -0.0552415997 -0.6224701405
6.1915922165 -0.4149089754 -0.4671468437
6.2267174721 -0.6192201376 -0.0840945840
6.2223815918 -0.5922622085 0.1989186853
6.2648701668 -0.3254184127 0.5334910750
6.1241192818 -0.1590399891 0.6042574048
6.1790232658 0.3796095848 0.4961793423
6.3163981438 0.6157502532 0.1054634303
6.2193460464 0.6210966706 -0.0695918500
6.3392801285 0.5879621506 -0.2119323164
6.1498193741 0.5432314873 -0.3088825345
6.3589906693 0.3397326469 -0.5241137147
6.1980667114 0.2379594445 -0.5778092146
6.4612221718 0.0571246035 -0.6220946908
7.0654420853 0.0509102680 -0.6228120923
6.9721074104 -0.4739379585 0.4069256186
6.8331394196 -0.6103209853 0.1328687370
6.7135043144 -0.6209117770 0.0712153167
7.0538983345 -0.6245399714 -0.0239581391
6.2058706284 -0.5134012103 -0.3559523523
6.4294247627 -0.4587748647 -0.4239549935
6.9490690231 -0.3008480370 -0.5473120213
7.2814540863 -0.1718546599 -0.6005054116
6.6421346664 0.1231996343 -0.6122850180
7.2542037964 0.1219921112 -0.6127550602
6.5686197281 0.2758123875 -0.5607815385
6.9108772278 0.3195995092 -0.5370931625
6.9280233383 0.5973287225 0.1824547499
7.0187029839 0.4360230267 0.4475956559
6.8034701347 0.1361154467 0.6097801328
6.5268440247 0.2091546059 0.5884816051
7.2819814682 0.1713460982 0.6006452441
7.5000004768 -0.4509844482 0.8608415723
7.5000004768 -0.8324809670 0.4675131440
7.5000004768 -0.7710840702 0.1995449215
7.5000004768 -0.7468870878 0.0246427245
7.5000004768 -0.8889611959 -0.1654204875
7.5000004768 -0.8312820196 -0.3527249396
7.5000004768 -0.4987800121 -0.7906128764
7.5000004768 -0.1497656703 -0.7616198659
7.5000004768 0.0429708548 -0.8389192224
7.5000004768 0.3278581202 -0.7775337696
7.5000004768 0.6768642664 -0.7103140354
7.5000004768 0.8644264936 -0.4297448099
7.5000004768 0.8905124068 -0.0084750224
7.5000004768 0.9507479072 0.2143509835
7.5000004768 0.6864297986 0.6023746729
7.5000004768 0.4696625471 0.7793645263
7.5000004768 0.3560293913 0.8951449394
7.5000004768 0.5245745182 0.6417078972
7.5000004768 0.5822975039 -0.4595870078
7.5000004768 0.5345135331 -0.6182293892
7.3635931015 0.3396645486 1.0338550806
7.3356747627 0.5013229251 0.9623289704
7.3240232468 0.6458473802 0.8703511357
7.3272604942 1.0567007065 0.2423785925
7.2424387932 1.2208672908 -0.5918547859
7.2827606201 0.8780567050 -0.6273725033
7.2444505692 0.9739171859 -0.9309476561
7.2535109520 0.6219871640 -0.8778678179
7.3137807846 0.4654554427 -0.9775910974
7.3712124825 0.1024267375 -1.0842576027
7.3279266357 -0.2443270534 -1.0563383102
7.3228259087 -0.4409949481 -0.9899654388
7.3683061600 -0.7520728707 -0.7872940898
7.3000459671 -0.9564074874 -0.5042610765
7.2648324966 -1.0540693998 0.2216721624
7.3602595329 -0.3657163084 1.0245345831
7.3850669861 -0.1824705750 1.0753492117
3.8682942390 0.3833198979 1.1573588162
2.2555370331 0.1698085035 0.4456389884
1.0225799084 0.1244725750 0.4349423419
5.4628562927 0.2500095651 0.8269116103
6.2151017189 0.3555771388 1.2868756877
7.2077851295 0.6218370651 1.4113788383
5.2762660980 0.3786514319 0.8622715683
2.0665826797 0.3522978762 0.7381045131
3.5040214062 0.2776436033 0.5175788533
6.2487349510 0.5956197749 1.0212024917
3.0325963497 0.6238396482 1.0360578554
7.1113219261 1.1215276903 1.8266896826
6.5012512207 0.5221799120 0.8390631044
5.1255292892 0.8350205309 1.3422094265
4.7826256752 0.6176191369 0.8695347439
3.1946098804 0.4607414625 0.6791768203
1.5058429241 0.1529749857 0.2266189291
6.9377851486 1.4295221367 1.8587985199
4.9581232071 1.1384499194 1.4426680369
4.1764535904 0.6720248147 0.8874642323
6.1489410400 1.1113196044 1.2860661137
3.8461468220 0.7356972758 0.8527416483
6.7918300629 1.0015965148 1.0773314465
5.9848232269 1.4998528684 1.5953772810
4.0366687775 1.0442469444 1.1453270064
6.5976605415 0.7046168293 0.7463722116
6.4948110580 0.7462678707 0.6467714809
4.5834498405 0.5729488136 0.4963792708
2.3658561707 0.3222570299 0.2749604450
7.2324080467 1.1090964510 0.8650204795
6.7840437889 1.1080182499 0.8972131169
2.5577111244 0.3498829342 0.2814790142
5.9014115334 1.5254790409 1.1556571819
6.9417648315 1.9874398999 1.2747471739
5.2319960594 0.9036121967 0.6051407387
2.1540322304 0.5622583987 0.3640644520
6.3929538727 0.8476806846 0.5355563651
5.0284547806 1.6046637135 0.9845102910
3.9754323959 1.3355973034 0.7767861001
3.2800974846 0.5304335615 0.3178016523
4.4285340309 0.6369372653 0.3627821993
5.6737546921 0.8137120283 0.3712119727
6.8362312317 1.6183978923 0.6725006622
6.0987668037 1.8265014732 0.7213494330
1.0955226421 0.4008177158 0.1572751851
6.2942385674 0.9733550878 0.3530763513
3.1254837513 0.9706390605 0.3445395176
1.4597901106 0.2502918104 0.0944972863
3.8605556488 1.1294566927 0.3651228434
2.6220152378 0.4438376246 0.1427746115
0.1381717324 -0.0201179627 0.0308670942
0.8576421738 -0.2958481804 -0.0528644026
0.5727862716 0.0325642384 -0.1114574125
0.7398324013 0.1324996180 -0.1061581243
0.9308763742 0.0660961513 -0.3869600338
0.9401756525 0.3897353248 0.1001281020
1.3118982315 -0.1766056705 0.1757896213
1.0925396681 -0.3941316590 0.1783615702
1.1084471941 -0.4075965762 -0.1049551207
1.2630307674 -0.1578492466 -0.2234015300
1.3548343182 0.1773525718 -0.1806958811
1.2465400696 0.2600288544 -0.1190873714
1.3855024576 -0.0046436134 0.2605351584
1.6766377687 -0.3012567575 0.0537217535
1.4011337757 -0.2618895798 -0.0220140593
1.5623410940 -0.2676472697 -0.1034777778
1.4715703726 -0.1604610496 -0.2154162960
1.6586605310 -0.1052080279 -0.2825229935
1.5104225874 0.1201661279 -0.2465256563
1.8385981321 -0.3508875039 0.4421217363
1.7046808004 -0.2926557769 -0.1490473542
1.7510459423 0.1926519613 -0.3359541001
1.7347533703 0.3405288941 -0.1268867900
1.9149582386 0.7317547275 0.0765013820
2.1338646412 -0.0036094986 0.7109033055
2.0108220577 -0.3242443389 0.7799004278
2.2666003704 -0.3331862783 0.3198325983
2.0887880325 -0.2725817771 -0.7412989404
2.1858415604 0.0319290617 -0.6022215697
2.0695655346 0.1923111685 -0.7917480458
2.2099094391 0.2404513770 -0.4999123966
2.2913918495 0.4120248139 -0.1378209683
2.1618099213 0.6491566508 -0.0750758760
2.6110372543 0.0425227843 0.4627038701
2.4161264896 -0.1132464498 0.4154494173
2.5818488598 -0.2074799658 0.4071285622
2.4150803089 -0.3077382408 0.3011632356
2.5808041096 -0.3791954703 0.2545427070
2.4027304649 -0.4289133378 0.0315634437
2.6453216076 -0.1823486212 -0.4290147377
2.5154178143 -0.0981220521 -0.4260099888
2.6256799698 0.0618433194 -0.4624387857
2.4371221066 0.1959197475 -0.3835520654
2.5775222778 0.2798575316 -0.3594692550
2.4622156620 0.4263355592 0.0626495655
2.9563183784 -0.2824506546 1.1343870325
2.8172364235 -0.7445073931 -0.1873899083
2.9638686180 -1.0838429069 -0.4691968389
2.9532492161 -0.2245020512 -1.1416861851
2.9049239159 0.5662026100 -0.8832126930
2.7291743755 0.4713941268 -0.2619822950
2.9769322872 1.1870868946 0.1610783405
3.2502660751 -0.3100098683 0.5993174104
3.0200519562 -0.6726290232 1.0122761209
3.2070457935 -0.6741433697 0.4010679932
3.0255420208 -1.2130398816 -0.0223738011
3.1079969406 -0.4179798928 -0.9934995198
3.2810556889 -0.1549682396 -0.5970770007
3.2492706776 0.0313290692 -0.6761810301
3.0329866409 0.3589124391 -1.1544666018
3.0301284790 0.9242709790 -0.7823457835
3.1960425377 0.7918796224 -0.1986876485
3.1387209892 0.9902141623 0.0450061492
3.3805999756 0.1402303900 0.5681743287
3.3823966980 -0.4284072675 0.3993349078
3.5102844238 -0.4891609630 0.3274803608
3.3474495411 -0.5344748841 0.2048528279
3.3307557106 -0.5548262233 -0.0979030733
3.5089991093 -0.4885946820 -0.3276519844
3.6245496273 -0.4199565273 -0.4588971463
3.4313056469 -0.3306219318 -0.4844001315
3.5924625397 -0.2765244561 -0.5501059625
3.5557456017 -0.0441629978 -0.6006088216
3.5185959339 0.1080131301 -0.5804204588
3.5025696754 0.3175510244 -0.4939028909
3.4063241482 0.4352698547 -0.3945301894
3.5267934799 0.5808948365 -0.1167562742
3.3129935265 0.5699021395 0.0907607669
3.6529116631 -0.0126037583 0.6178746343
3.7177174091 -0.1726732635 0.6640814699
3.8041563034 -0.4479003623 0.8408405275
3.8315715790 -0.7327053055 0.7721417449
3.7192986012 -0.5753538811 0.3799778621
3.8982398510 -1.3112070424 0.2663012140
3.6774539948 -0.5428658686 -0.3038953377
3.9378626347 -0.7906166991 -1.2363721816
3.9282031059 -0.4414062059 -1.3706454811
3.8883948326 0.3496656278 -1.2526680412
3.6518657207 0.2259651464 -0.5755785097
3.7689564228 0.5699947668 -0.5959202303
3.9195728302 1.2798951977 -0.5986650889
3.6771905422 0.5865135716 -0.2071548934
3.8441698551 1.1162782649 0.0559669966
4.1428942680 -0.2689364307 1.2179984369
4.0590391159 -0.9067798903 1.2124150106
4.1997022629 -0.7923554084 0.6463116132
4.0798029900 -1.2933192884 0.6871809646
4.2320580482 -0.8548729924 0.3074549731
4.1446685791 -1.2397775864 0.0331813945
4.1579923630 -1.0251785928 -0.5989399491
4.0791692734 -1.0686304864 -1.0039941490
4.1744742393 -0.6162958607 -0.9365286938
4.0707392693 -0.1942326790 -1.4753772249
4.2354879379 0.0107500593 -0.8974264428
4.0043859482 0.8380930531 -1.3237712355
4.2256464958 0.6713735890 -0.6430497615
4.1196608543 1.1961604267 -0.5955858215
3.9597213268 1.5109269909 -0.1557340592
4.0625958443 1.4677260627 0.3403474108
4.3116302490 0.1560866993 0.7113343308
4.4402461052 0.0732049938 0.7278050566
4.3641009331 -0.0859476361 0.7234706945
4.4488072395 -0.2308748999 0.6930080405
4.3228869438 -0.5826774259 0.4153218641
4.5060434341 -0.6424706370 0.3483980983
4.3086056709 -0.7289409770 0.0675570651
4.4436459541 -0.6862994803 -0.2518783378
4.5723438263 -0.2778484667 -0.7005908004
4.4316263199 -0.1162572884 -0.7232990797
4.3142895699 0.3171468391 -0.6518853453
4.5117659569 0.4056101839 -0.6092081037
4.3568067551 0.6034107654 -0.4018881365
4.4361143112 0.6816406242 -0.2667773392
4.4193000793 0.7334714046 -0.0303327905
4.5782823563 0.7467463875 0.1186784342
4.7676825523 0.1654751530 0.9909866814
4.8334426880 -0.4196432820 1.2395802208
4.9287137985 -0.8988599264 1.5019015269
4.7872824669 -0.6461283575 0.8739036880
4.6231551170 -0.5016015266 0.5813903048
4.8400235176 -0.9788336397 0.9182940066
4.6312818527 -0.6164034475 0.4576957979
4.7853617668 -0.9248197698 0.5546709211
4.6797480583 -0.7005517526 0.3171199711
4.8737144470 -1.4337270378 0.4792374457
4.8489494324 -1.3862409775 0.0539307913
4.7125120163 -0.8285106995 -0.0481120573
4.7592983246 -0.9152683076 -0.3282794882
4.6148138046 -0.6523346877 -0.4037003821
4.7866716385 -0.5319736195 -0.9447549481
4.7129139900 -0.2494654812 -0.7927029216
4.7480015755 0.1811614724 -0.9145673563
4.8799862862 0.5751345668 -1.4311449237
4.7222967148 0.3867918775 -0.7618303213
4.8585171700 0.8051695722 -1.1890637139
4.6446533203 0.4776915371 -0.5974527145
4.7966308594 0.8543206123 -0.7386033135
4.6158819199 0.7036972837 -0.3056542634
4.8929538727 1.5620766902 0.3625150090
4.9608078003 0.4336152140 1.7918921853
5.0136561394 -0.4436308968 1.8412139662
5.1165242195 -0.7941248811 1.4132537616
5.0118055344 -1.3447593239 1.3338963447
5.1925306320 -1.1080828437 0.5972633545
5.0898280144 -1.7201466319 0.1825014012
5.0116519928 -1.8251758988 -0.5067262619
4.9427347183 -1.5407096771 -0.9233445368
5.1548476219 -1.0603453629 -0.9757642528
5.1731276512 -0.8052713264 -1.0857927926
5.1058354378 -0.7178622448 -1.5043967342
5.1587438583 -0.1171623991 -1.4171934440
5.0361618996 0.1828566020 -1.8636223611
5.0323066711 1.2905710431 -1.3642449543
5.1842875481 1.0667544473 -0.7394000432
5.0849647522 1.5969238008 -0.7101860484
4.9779791832 1.8298152749 -0.4101363739
5.1502618790 1.4626147066 0.0521919334
5.3750319481 0.0314292375 0.8703445325
5.4397397041 -0.1289090612 0.8581505947
5.5033636093 -0.3509865039 0.7895992868
5.5557022095 -0.6371248601 0.6092646037
5.4538154602 -0.8120933230 0.2985041775
5.4185447693 -0.8567949246 -0.1607597920
5.5537986755 -0.8378472850 -0.2714802279
5.3771800995 -0.8127006407 -0.3149832887
5.2936491966 -0.7697005495 -0.4677430057
5.5660066605 -0.5886197582 -0.6625864283
5.4184017181 -0.5319906412 -0.6905238794
5.3646802902 -0.4204684735 -0.7585370228
5.2575135231 -0.3184288210 -0.9441598091
5.4557003975 -0.0288430897 -0.8643318945
5.2555980682 0.2287579411 -0.9762800407
5.5792407990 0.2870967416 -0.8448908027
5.4087686539 0.4159415599 -0.7675062623
5.4496583939 0.5439659876 -0.6736128333
5.4850983620 0.7396930686 -0.4436764299
5.2564163208 0.9839015430 -0.1794737052
5.2928833961 0.8867924109 0.1673901119
5.6447467804 0.1124050390 0.8929943001
5.7927489281 -0.2231559132 1.2811804257
5.8706741333 -1.6668949913 0.5225795452
5.8664717674 -1.6765267547 -0.3962023310
5.7451534271 -0.9965956895 -0.4199924773
5.7275609970 -0.7645843829 -0.6734839912
5.7078919411 -0.3954331129 -0.8770752083
5.6438236237 -0.2252748295 -0.8718408001
5.6942009926 -0.0826378402 -0.9266454310
5.7863531113 0.1094441581 -1.2626221314
5.7442116737 0.3794114719 -1.0090500138
5.5929727554 0.4291916188 -0.7886282659
5.7840127945 0.7181700826 -1.0301041900
5.7005667686 0.7151331180 -0.6167694606
5.7239561081 0.9846157142 -0.2142511277
5.6686201096 0.8657471656 0.1948570976
5.9206166267 0.3450437254 1.9745910777
5.9301419258 -0.0448024977 2.0437577749
5.9408555031 -0.5668240110 2.0060973244
6.1212897301 -0.6509076262 1.7335284639
5.9573607445 -1.1774068978 1.7817683316
6.1091670990 -1.5071265502 1.1792065108
6.2035789490 -1.2200483448 0.6751504852
6.2193784714 -1.3114824937 0.0776210497
6.0744948387 -2.0602268089 -0.1540389026
6.2080955505 -1.1378163427 -0.7641289137
6.0932998657 -1.3639234121 -1.4476168673
5.9590225220 -1.3588213658 -1.6532925214
6.1015586853 -1.1014166381 -1.6098840669
5.9532971382 -1.0602345628 -1.8407820814
6.1274390221 -0.6228653578 -1.7087443388
5.9277291298 0.4580862216 -1.9822342365
5.9942049980 1.1652549684 -1.8635647419
5.9128284454 1.4023920061 -1.3821019309
6.0884723663 1.5256399461 -1.3087765070
6.1509923935 1.6781793221 -0.1800526580
6.1523933411 1.6419870817 0.3545296329
6.5206851959 0.1505406025 0.9809636157
6.2761974335 0.1302704094 1.0768226477
6.3974652290 -0.2170264329 0.9787547091
6.4474577904 -0.3620107166 0.9242365151
6.2789192200 -0.4645581532 0.9712100673
6.4424448013 -0.5777039435 0.8086955104
6.2928571701 -0.6420548901 0.8164442547
6.4526190758 -0.6896201905 0.7124229633
6.2908244133 -1.0101805152 0.2627291889
6.4068102837 -1.0018740413 0.0123756842
6.4301743507 -0.9745996281 -0.2099235528
6.3786282539 -0.8676360299 -0.4995158407
6.2416539192 -0.8949313223 -0.8167088011
6.4574403763 -0.4628919936 -0.8755507299
6.2938604355 0.1173414008 -1.0298120506
6.3584351540 0.6906592026 -0.7126856630
6.5174703598 0.8799890310 -0.4568792640
6.3900709152 0.9649390570 -0.2717582177
6.3065209389 1.0023346746 -0.1118095833
6.6774702072 0.2047676520 1.0039132868
6.6364178658 0.0281303765 1.0284999651
6.6785979271 -0.3423620221 0.9677453238
6.8425898552 -0.7373514447 1.6359680056
6.6817173958 -0.6113081005 0.8317238211
6.6302976608 -0.7481330313 0.7086428820
6.8119587898 -1.2201927924 1.0262301553
6.8039045334 -1.4657906297 0.4844347260
6.7896852493 -1.4516745071 0.1385506230
6.8566327095 -1.8418093342 -0.4118144390
6.6832089424 -0.9917526509 -0.2961839236
6.5790972710 -0.8963558150 -0.4839039846
6.5779409409 -0.6471928041 -0.7857947650
6.6083893776 -0.3300315870 -0.9750244640
6.7380900383 -0.2703739371 -1.1684902786
6.8554987907 -0.1695923788 -1.8725955183
6.8008975983 0.1095456378 -1.5217783019
6.7562909126 0.3622338939 -1.2277005564
6.5669412613 0.4034790753 -0.9287624709
6.6463422775 0.5631472755 -0.8561356543
6.7170009613 0.7592442029 -0.8264623070
6.6083173752 0.8022103575 -0.6450915657
6.8372383118 1.5754574836 -0.7830710423
6.8146271706 1.6060591869 -0.1332092926
6.7512640953 1.2238609598 0.2846871255
6.9011712074 0.3754211012 2.1321805396
7.1136698723 0.1786041740 2.1222436012
7.0001921654 -0.1520162909 2.4803088341
7.0698604584 -1.1349129566 2.0553119804
7.1377778053 -1.1994901832 1.5798165478
6.9856753349 -1.6001038470 1.8870669088
6.9812197685 -1.9557406596 1.5052925128
7.0726661682 -2.0467676250 1.1272051597
7.0219235420 -2.4177468187 0.5298311776
6.9384307861 -2.3417208568 0.1612594573
6.9396300316 -2.3462265011 -0.1717622639
7.0456423759 -2.3708732459 -0.5280937533
7.0069422722 -2.3192965231 -0.8927275489
7.1880102158 -1.3171734267 -1.0138683343
7.0354070663 -0.1079628439 -2.4510353908
7.0198798180 0.2449101772 -2.4650642669
7.0459156036 0.9213927877 -2.2469590716
7.0754971504 1.1945310090 -1.9941803374
6.9432520866 1.6330336496 -1.7127212969
6.9358439445 1.9210092428 -1.3307777651
6.9635334015 2.3947508532 -0.4244562307
6.9833245277 2.4697283462 -0.0844578505
7.1454644203 1.9156129765 0.2705885442
7.2120876312 -0.2534656184 1.4959132495
7.4870700836 -0.2678866386 1.0055783987
7.4750814438 0.1734742373 1.0435246229
7.3894252777 0.7641100287 0.7788975239
7.4385218620 0.8822152615 0.6299113035
7.4920787811 0.6417924762 0.8064315319
7.4776506424 0.9382708073 0.4812033176
7.4610238075 1.0688281059 0.0634533986
7.4901280403 1.0266022682 -0.1307864934
7.4174876213 0.7712035775 -0.7705458999
7.4591779709 0.6308110952 -0.8669782281
7.4422521591 0.2320118695 -1.0570739508
7.3913903236 -1.0906308889 0.0377234742
7.4625525475 -1.0454601049 -0.2262131870
7.4918994904 -1.0284326077 -0.0729256123
7.4831290245 -0.9894117713 0.3430708051
7.4904251099 -0.1438604146 0.6670003533
7.4710903168 -0.4031890035 0.5157288313
7.4466123581 -0.5691466331 0.2848955989
7.4994840622 -0.5879298449 0.4075433910
7.4900746346 -0.3311578333 -0.5958654881
7.4672908783 -0.0016470724 -0.6510865092
7.4993185997 0.1821764708 -0.6902920604
7.4913396835 0.4381171167 -0.5256335735
7.4727663994 0.5982887745 -0.2698231339
7.4992251396 0.7108345628 -0.0553228930
7.4969549179 0.5244849324 0.4642916620
6.0500192642 0.1086165458 -0.6016291976
6.0515203476 -0.2389045507 -0.5636290908
6.0545644760 -0.3886250257 -0.4751695395
6.0562019348 -0.6137875319 -0.0330090299
6.0573153496 -0.5995457172 0.1381948888
6.0609731674 -0.5310587883 0.3137338758
6.0574402809 -0.3136588633 0.5292574763
6.0594787598 0.4690767229 0.3994993269
6.0593981743 0.5554772615 0.2668883204
6.0586075783 0.6084451675 0.0943815261
6.0547261238 0.5803259611 -0.2004022151
