4.7191402794 -0.0189093568 -0.7596678941
4.6971012759 -0.0173483936 -0.7567197696
4.6048904198 -0.0351732152 -0.7436184785
4.6344832595 -0.0168075773 -0.7482209147
4.8712681218 -0.0076134854 -0.7806788441
4.9234390003 -0.0056699408 -0.7877515724
4.7085713685 0.0009083209 -0.7584782315
4.6429099745 -0.0051174878 -0.7496119760
4.9247412608 0.0151674487 -0.7877227556
4.8327189063 0.0080326649 -0.7752840379
4.8795617118 0.0082375143 -0.7816496622
4.7377721630 0.0129848668 -0.7623283593
4.7934955944 0.0125321828 -0.7699077023
4.7668227015 0.0231961369 -0.7661764896
4.6783140502 0.0167012741 -0.7542090828
4.8114227546 0.0172550044 -0.7722979929
4.6224539420 0.0096106025 -0.7466857049
4.8457679819 0.0224028989 -0.7769159038
4.9056999378 0.0531718340 -0.7835512538
4.9099829313 0.0343031283 -0.7851014534
4.8015773533 0.0324909165 -0.7704394063
4.7442151884 0.0281602773 -0.7628539125
4.8177491176 0.0384529564 -0.7723348986
4.8889396976 0.0480062382 -0.7815348375
4.8823363651 0.0274665512 -0.7816889710
4.6117193134 0.0252390652 -0.7449698159
4.6434023918 0.0404212928 -0.7485038918
4.6619439410 0.0402708556 -0.7510352694
4.6044716228 0.0387162236 -0.7432924804
4.6688251838 0.0516879003 -0.7513866095
4.7742769523 0.0435642785 -0.7661559423
4.6235538957 0.0437609669 -0.7456311416
4.8083476784 0.0497605661 -0.7704756321
4.8264885499 0.0577627672 -0.7724462434
4.7898942321 0.0598607170 -0.7672558537
4.7677446127 0.0628656492 -0.7639531882
4.8913882319 0.0692351807 -0.7802411114
4.6156281548 0.0540846635 -0.7440021427
4.8697395276 0.0625397660 -0.7779072240
4.6325334703 0.0694547110 -0.7448833228
4.8907262257 0.0853965101 -0.7786506279
4.7414123244 0.0796984743 -0.7587960281
4.6125030169 0.0684066199 -0.7422461619
4.6601815797 0.0719387292 -0.7484271212
4.8013727409 0.0960946644 -0.7650843601
4.7739422845 0.0963191290 -0.7612918307
4.9074370279 0.0901358881 -0.7804345014
4.6460885710 0.0880316015 -0.7448720176
4.7249994084 0.0931806474 -0.7550016837
4.8324162998 0.1022114985 -0.7685183095
4.8713420680 0.1113907102 -0.7726208751
4.6665629846 0.1057080079 -0.7452992954
4.7001025100 0.0953138397 -0.7512995538
4.8916042765 0.1198574300 -0.7742595594
4.6284346620 0.1140215781 -0.7389498970
4.8486976180 0.1182094408 -0.7685965602
4.7187805164 0.1080193631 -0.7521499992
4.6117128949 0.1032956755 -0.7381011173
4.6841225597 0.0933840796 -0.7493677126
4.7754993140 0.1168482320 -0.7587402016
4.7084253579 0.1153424718 -0.7497433146
4.7409443438 0.1055592486 -0.7555213062
4.9128153106 0.1437952061 -0.7729816543
4.8663710171 0.1274568686 -0.7694629052
4.6839962444 0.1188492783 -0.7458110837
4.9107033980 0.1241414581 -0.7761696990
4.8469887470 0.1327513511 -0.7658499416
4.7227358985 0.1299771284 -0.7491887426
4.7087056899 0.1385768963 -0.7457294408
4.6949744094 0.1293661654 -0.7454646088
4.7914350744 0.1408713722 -0.7567434961
4.6137149855 0.1231075242 -0.7353552958
4.8153046746 0.1453350739 -0.7592482827
4.8455237082 0.1491276713 -0.7627483824
4.6120377285 0.1392380635 -0.7322679795
4.6766785678 0.1458557954 -0.7400196269
4.9063144568 0.1775976302 -0.7650381973
4.8222326541 0.1701559283 -0.7549728902
4.8478075185 0.1674221827 -0.7591338858
4.6928307571 0.1550168685 -0.7402934149
4.8288213460 0.1590693176 -0.7583291182
4.9227015769 0.1747233166 -0.7679513609
4.8752191519 0.1784741605 -0.7605174748
4.8050337972 0.1605117841 -0.7547009822
4.8866646270 0.1630959580 -0.7654938839
4.6778495494 0.1652260515 -0.7359621555
4.7096242347 0.1733784393 -0.7385909483
4.6246114662 0.1701266850 -0.7274742225
4.6326586913 0.1517822988 -0.7326302604
4.7410507975 0.1785570204 -0.7418255675
4.8686291855 0.2058606222 -0.7525918826
4.7280166763 0.1902583467 -0.7369401882
4.7746985625 0.1806047279 -0.7460490839
4.8413703727 0.1910530553 -0.7526657388
4.7504327116 0.1927282657 -0.7394399122
4.7938892131 0.1924104946 -0.7456328141
4.7317632901 0.2072891981 -0.7329745577
4.6071215012 0.1980973942 -0.7178770877
4.7973219697 0.2094553896 -0.7416193569
4.6731495041 0.1879031402 -0.7298482504
4.8121993432 0.2073917715 -0.7442551389
4.7627876487 0.2024496306 -0.7386124987
4.8723049246 0.2324900023 -0.7452898949
4.8247909231 0.2256234220 -0.7406493073
4.7053877711 0.2138798718 -0.7272869413
4.8874541672 0.2225253436 -0.7505189912
4.7637167493 0.2234932638 -0.7326185817
4.8397998481 0.2286869602 -0.7418392446
4.9202643406 0.2175970069 -0.7567066723
4.6773248586 0.2109267871 -0.7242059827
4.8088326879 0.2417619851 -0.7334004695
4.7813449344 0.2319154587 -0.7325279622
4.6898923727 0.2226157385 -0.7223876784
4.7762107871 0.2505445332 -0.7256336193
4.7509928302 0.2515711490 -0.7216330378
4.8912111007 0.2674431008 -0.7362295851
4.8976060077 0.2479862231 -0.7440470478
4.8317164976 0.2502291417 -0.7337500490
4.8405286713 0.2639043583 -0.7301745851
4.8546580953 0.2591145382 -0.7339096774
4.8781850907 0.2538861053 -0.7391554622
4.6339731380 0.2445547618 -0.7072437558
4.7098259941 0.2615274569 -0.7121678745
4.6522147243 0.2600770813 -0.7043735621
4.6758693971 0.2615955882 -0.7072467418
4.7972819256 0.2612768355 -0.7248689868
4.7209398881 0.2563061246 -0.7156210038
4.7907514676 0.2891320936 -0.7132496402
4.7601745014 0.2749705711 -0.7144583290
4.9208833085 0.2926788599 -0.7308873147
4.8853786616 0.2979538877 -0.7235678542
4.7754911759 0.2799480362 -0.7147028636
4.7177964965 0.2753351728 -0.7081042153
4.6681551341 0.2712060822 -0.7024909469
4.8670848038 0.2951374290 -0.7220192838
4.8353981893 0.2924312786 -0.7184645923
4.8070503460 0.2868535485 -0.7165522917
4.8917028108 0.2852172953 -0.7296096508
4.8636831572 0.2813548670 -0.7270565058
4.6991789681 0.2890294377 -0.6998770152
4.6303246123 0.2874783673 -0.6904139500
4.6724731833 0.2883771777 -0.6962270277
4.7884532053 0.3008149240 -0.7082207978
4.6543353128 0.2772141476 -0.6980535472
4.6481880571 0.2936558774 -0.6905495703
4.7257902722 0.2901932099 -0.7033077237
4.8770926303 0.3118137733 -0.7165131398
4.7550618549 0.3001942859 -0.7035544172
4.9031767025 0.3090019082 -0.7216685482
4.8579291806 0.3068274799 -0.7159023361
4.8527449423 0.3198063523 -0.7092828393
4.8873861855 0.3235701309 -0.7127518579
4.9090698474 0.3299987546 -0.7130886596
4.7137100430 0.3024409727 -0.6963774135
4.6145772478 0.2999612014 -0.6827152462
4.6555776405 0.3223291787 -0.6787516323
4.7032293075 0.3138431369 -0.6896785321
4.6636336119 0.3055567490 -0.6875081883
4.8773045879 0.3315514768 -0.7076534775
4.8299429228 0.3310341815 -0.7008255741
4.8172509794 0.3406314327 -0.6941803159
4.7698468297 0.3434858398 -0.6855421735
4.7553834156 0.3348757289 -0.6876582114
4.8993140791 0.3528253881 -0.7005463997
4.9137376302 0.3455512202 -0.7063850403
4.8498050788 0.3427036226 -0.6980915049
4.8227520411 0.3567325865 -0.6869472916
4.8567296829 0.3619969339 -0.6894751071
4.6654012924 0.3423447464 -0.6702335453
4.6502725191 0.3432033068 -0.6675029910
4.7559297167 0.3482373885 -0.6810447903
4.8741184763 0.3630945456 -0.6915689089
4.6355907967 0.3393647022 -0.6671944978
4.6959417896 0.3536362584 -0.6691866134
4.8823565160 0.3743340334 -0.6866879965
4.8978147050 0.3694555394 -0.6917929215
4.8597556179 0.3781285418 -0.6810736619
4.9269944384 0.3928584990 -0.6833617319
4.8238858765 0.3719179701 -0.6789403712
4.7108706846 0.3615074176 -0.6671457648
4.8771247276 0.3880907190 -0.6782535562
4.8903295920 0.3914438586 -0.6784478586
4.7212954217 0.3735757742 -0.6620796767
4.7922428431 0.3790164940 -0.6700904395
4.6122964587 0.3605092597 -0.6523806329
4.6666515919 0.3634157490 -0.6592170093
4.6854518081 0.3661573860 -0.6606195943
4.6307374993 0.3717259273 -0.6490321046
4.9050243355 0.3977348290 -0.6770778068
4.7799129819 0.3862581684 -0.6641561168
4.9118955146 0.4151662543 -0.6675498602
4.8646418668 0.3988972399 -0.6699415290
4.7913243382 0.3946539095 -0.6608566764
4.6840313917 0.3838683610 -0.6503501498
4.7432205431 0.3894242333 -0.6563862994
4.8603667230 0.4174132430 -0.6579784783
4.7301935827 0.4032651947 -0.6458788767
4.7976980051 0.4086893116 -0.6533188927
4.7787163416 0.4060890077 -0.6518819155
4.7586177632 0.4049804948 -0.6493581482
4.6110821474 0.3880417643 -0.6361953109
4.6686783128 0.3864003394 -0.6463634590
4.7856000959 0.4197708269 -0.6442863878
4.7711898217 0.4192912634 -0.6422514106
4.8985854952 0.4262537191 -0.6584243192
4.8571579966 0.4381230258 -0.6437307380
4.8747367610 0.4271263349 -0.6539441898
4.9258072114 0.4493255636 -0.6474722667
4.6253915794 0.4026017820 -0.6295639339
4.7465287485 0.4195951323 -0.6380181698
4.6263764090 0.4231264290 -0.6160241846
4.7111867812 0.4302338981 -0.6251405252
4.6121069216 0.4130229888 -0.6204363846
4.7325289139 0.4317878198 -0.6275912373
4.6963409682 0.4229548359 -0.6275731933
4.8849943540 0.4448418403 -0.6437951295
4.8194541266 0.4342284843 -0.6401684178
4.9254975279 0.4752981350 -0.6285905732
4.7311904963 0.4427458367 -0.6196359614
4.7535087171 0.4398099146 -0.6255305639
4.8572003578 0.4511826383 -0.6346823362
4.6764813439 0.4318506357 -0.6183757146
4.8901833896 0.4671164592 -0.6286146926
4.7934744619 0.4516438479 -0.6236263860
4.8315527200 0.4572950478 -0.6259119795
4.8272384524 0.4447311541 -0.6343454597
4.9127761633 0.4671230541 -0.6324103538
4.8747581695 0.4625306719 -0.6293630085
4.6585645531 0.4423819617 -0.6076843722
4.7170245775 0.4449583862 -0.6156400533
4.6365628811 0.4344077294 -0.6097966362
4.6748019711 0.4489822837 -0.6056040627
4.7290651820 0.4564815186 -0.6092649900
4.6905159265 0.4475442052 -0.6092957791
4.8142653403 0.4752284028 -0.6094692062
4.7274158362 0.4665723366 -0.6012683317
4.8364598570 0.4783675792 -0.6108285321
4.8706109039 0.4777100160 -0.6172792705
4.8776016204 0.4908331099 -0.6080688733
4.6979591213 0.4619863412 -0.5997975689
4.7840994498 0.4671213658 -0.6106721709
4.8262588382 0.4848189861 -0.6039332089
4.7720985210 0.4731582218 -0.6037936802
4.7814072101 0.4899998810 -0.5920319302
4.6405178516 0.4684169090 -0.5847181603
4.6686547269 0.4742401684 -0.5849770215
4.6058090865 0.4719878306 -0.5758564592
4.9223675167 0.5074666420 -0.6022855990
4.8649134279 0.4985310812 -0.5996852219
4.7509930499 0.4975823417 -0.5800398214
4.8434382896 0.5052888095 -0.5899881892
4.8790911751 0.5114730888 -0.5910493946
4.8286739181 0.5069407081 -0.5859084964
4.8945025007 0.5018352114 -0.6021457428
4.6997168755 0.4837763337 -0.5827576736
4.8159329925 0.4955752615 -0.5934401840
4.9236746139 0.5258346208 -0.5866492179
4.8593203295 0.5094555133 -0.5892409933
4.6069707406 0.4845323046 -0.5654431444
4.7008546831 0.5000678565 -0.5688851021
4.8006875731 0.5153219794 -0.5736389271
4.6727948379 0.5028517206 -0.5614388705
4.6247648410 0.4937521425 -0.5606731996
4.7373041988 0.5032313200 -0.5726996037
4.6860572975 0.5056269067 -0.5614234494
4.8739723646 0.5386214523 -0.5654860545
4.7618061943 0.5171924930 -0.5646928564
4.9144000517 0.5471012846 -0.5650618239
4.8553438778 0.5318554193 -0.5683657688
4.6488147249 0.5052634696 -0.5548254567
4.6581398275 0.5138781513 -0.5484751662
4.6364676906 0.5148321413 -0.5435383603
4.7624784897 0.5351851537 -0.5479233528
4.8639969324 0.5597044283 -0.5426696883
4.7295462743 0.5345747773 -0.5421957065
4.6848063342 0.5331135916 -0.5349992725
4.9067172925 0.5671207630 -0.5433999966
4.8367551380 0.5464548947 -0.5508943408
4.8112910050 0.5476919911 -0.5446883960
4.8627429861 0.5461384124 -0.5562629836
4.8261667780 0.5533175862 -0.5418388315
4.7712671487 0.5462444162 -0.5383937623
4.9156019719 0.5595695848 -0.5528269439
4.7352129355 0.5535601065 -0.5239317065
4.6450030838 0.5302835772 -0.5301574984
4.7024847629 0.5475510065 -0.5237061787
4.6316970796 0.5291860182 -0.5286934448
4.6058740097 0.5386216726 -0.5140556079
4.6527774199 0.5429865168 -0.5187105000
4.6646063713 0.5349662022 -0.5291876240
4.8411295542 0.5599185286 -0.5380113465
4.6257789560 0.5416792673 -0.5148017684
4.7469607935 0.5632177263 -0.5157577342
4.9240256106 0.5760273033 -0.5374880257
4.8186924767 0.5724819369 -0.5200458099
4.7012514941 0.5569912980 -0.5133832004
4.8297425171 0.5658613388 -0.5296237662
4.7821995748 0.5700991638 -0.5152821450
4.6819416479 0.5605316802 -0.5055425140
4.8503217268 0.5864171668 -0.5110218380
4.7143863910 0.5700444516 -0.5015843631
4.6643155349 0.5654320175 -0.4965365166
4.9122490226 0.5980335593 -0.5103730428
4.7755250205 0.5901871210 -0.4907284135
4.8725411138 0.5970956403 -0.5030525171
4.9109586518 0.6078330513 -0.4982936691
4.8172961191 0.6050330900 -0.4817339321
4.6207459585 0.5698208793 -0.4823231484
4.7519568146 0.5971780790 -0.4772912331
4.6778692395 0.5757578259 -0.4873279286
4.7656054798 0.5947694196 -0.4830974105
4.9225699891 0.6197631460 -0.4860298348
4.7394107315 0.6042636431 -0.4652969636
4.8399763410 0.6170950169 -0.4710140442
4.8702450819 0.6169820973 -0.4779473079
4.9116713336 0.6314924371 -0.4682057394
4.7435097461 0.6141947538 -0.4531928957
4.6151821614 0.5950340685 -0.4495524042
4.6338986409 0.6027895054 -0.4435780611
4.8535955273 0.6259979957 -0.4623922366
4.6696337962 0.6023238893 -0.4521991558
4.6852161215 0.5980857271 -0.4612497529
4.6603069449 0.5929581483 -0.4623899435
4.7677963356 0.6098498126 -0.4643346939
4.7020716236 0.6006371294 -0.4616824258
4.6880686787 0.6113675439 -0.4443517883
4.7248228362 0.6172354866 -0.4446779921
4.8088847402 0.6246303518 -0.4540427085
4.8268955407 0.6303411400 -0.4501473607
4.8768661948 0.6397104120 -0.4486009992
4.8903563298 0.6368646300 -0.4558713446
4.8084888809 0.6344775635 -0.4398647626
4.9120948196 0.6509052761 -0.4409464497
4.9191784931 0.6431352894 -0.4537399225
4.6431177430 0.6202132299 -0.4210368075
4.8410248550 0.6426465450 -0.4358992384
4.6092342821 0.6086484825 -0.4295395157
4.8582597653 0.6439795417 -0.4380812058
4.7408113391 0.6267245476 -0.4348989994
4.6996823498 0.6285817863 -0.4224859573
4.6467346455 0.6102801551 -0.4361017119
4.6796306731 0.6215735400 -0.4277528820
4.9236646981 0.6624495360 -0.4261662787
4.9140314956 0.6701201995 -0.4117372531
4.8475238249 0.6561082083 -0.4168706891
4.8834775151 0.6641240842 -0.4134056843
4.7414633323 0.6358252234 -0.4218316234
4.8889615377 0.6511258183 -0.4351208151
4.7690744570 0.6476147183 -0.4103588411
4.6889951641 0.6353289530 -0.4093673606
4.6153506166 0.6320249367 -0.3959508832
4.6625884579 0.6414417369 -0.3931422064
4.7202150707 0.6442679810 -0.4032638096
4.6810206396 0.6433397595 -0.3948248357
4.8851004772 0.6779628019 -0.3906427405
4.7653160897 0.6575602769 -0.3933184827
4.8495229300 0.6721990017 -0.3909293358
4.8272545005 0.6646700247 -0.3978399416
4.7263342619 0.6544878124 -0.3880659497
4.6939916427 0.6463378113 -0.3933221592
4.8317912429 0.6729230504 -0.3848982196
4.8714581877 0.6705476052 -0.3996874275
4.7098563474 0.6503212674 -0.3907684007
4.6862239646 0.6601286452 -0.3675517485
4.6765867001 0.6524709439 -0.3780942405
4.6205299337 0.6505818928 -0.3661993879
4.6593737889 0.6522129754 -0.3738888976
4.7875484608 0.6681579552 -0.3811305209
4.7619946444 0.6667647587 -0.3766214971
4.6334805275 0.6450671406 -0.3791629806
4.8191736715 0.6859152414 -0.3575157889
4.8279953998 0.6805135489 -0.3703037806
4.7339177761 0.6715194388 -0.3599535029
4.9010919026 0.6970628693 -0.3602535189
4.8759525381 0.6836208439 -0.3783759010
4.8894486681 0.6895790286 -0.3710277226
4.8690856966 0.6907158600 -0.3629523938
4.7573271937 0.6761339315 -0.3580320035
4.7870071593 0.6760608028 -0.3668050673
4.6790369903 0.6694015705 -0.3479949545
4.6650887754 0.6669343322 -0.3486057559
4.9026622695 0.7066143068 -0.3415805682
4.8580083014 0.7026360801 -0.3358201326
4.8076770310 0.6965660692 -0.3326544231
4.7393548302 0.6850970263 -0.3351315895
4.7606462217 0.6852661697 -0.3415026151
4.9167308229 0.7060070315 -0.3472987086
4.6883201509 0.6763184982 -0.3374256244
4.9238803096 0.7140289586 -0.3327287395
4.8386234308 0.7016831806 -0.3316955380
4.7028290369 0.6790602115 -0.3362573299
4.6726125941 0.6796811742 -0.3254093841
4.6531561189 0.6751859536 -0.3286932965
4.6441832668 0.6813436918 -0.3129409531
4.6163015564 0.6793309746 -0.3083555014
4.8961743721 0.7141022534 -0.3238227870
4.7470552780 0.6943708743 -0.3181092971
4.8967419626 0.7232233487 -0.3027842646
4.7287567109 0.6964255492 -0.3073983564
4.8080576888 0.7115265854 -0.2994799322
4.8520889451 0.7113064373 -0.3152394661
4.7803132854 0.7044187692 -0.3065241044
4.7976028295 0.7048928576 -0.3113993269
4.7595100012 0.7046064007 -0.2988823783
4.6451053176 0.6949625617 -0.2818646196
4.7032738317 0.7026967900 -0.2838861392
4.8721316595 0.7228872600 -0.2950512975
4.7878908395 0.7109824683 -0.2937725827
4.7162974915 0.6973434698 -0.3009347541
4.7233003398 0.7042363960 -0.2872130492
4.8580020361 0.7254201763 -0.2833725842
4.6293000792 0.6940472110 -0.2784345672
4.7713366246 0.7124912232 -0.2842473042
4.8576438189 0.7310321366 -0.2684223759
4.7529469894 0.7116773539 -0.2793398902
4.8341631748 0.7241087839 -0.2776876566
4.9075610543 0.7383724926 -0.2681994437
4.9265694038 0.7381727070 -0.2760197845
4.6779152070 0.7014498625 -0.2775476212
4.7134001318 0.7112502850 -0.2652941184
4.8010477814 0.7230366297 -0.2678121137
4.7770794528 0.7221389204 -0.2609856698
4.6703689930 0.7068285778 -0.2604553543
4.6128275049 0.7007911948 -0.2543139430
4.6593729333 0.7001328962 -0.2739095849
4.6052587943 0.6918864833 -0.2749138243
4.7252085804 0.7154217521 -0.2588141794
4.9196953749 0.7475831249 -0.2464251658
4.8420283430 0.7358801422 -0.2481649727
4.8236866933 0.7308230175 -0.2554775724
4.8800042266 0.7454045941 -0.2358719053
4.7420699959 0.7212526617 -0.2490968620
4.7854592234 0.7274615740 -0.2491151266
4.6851339368 0.7140879112 -0.2461155814
4.6953717180 0.7199230306 -0.2329684494
4.7402440257 0.7287288980 -0.2258107148
4.6447093846 0.7130762585 -0.2317346240
4.7160140118 0.7203792313 -0.2404936332
4.8198260667 0.7362984584 -0.2373355199
4.7578112727 0.7278920587 -0.2359016471
4.8538780803 0.7473503148 -0.2169586163
4.8762363932 0.7510163419 -0.2152018043
4.7525961799 0.7326735389 -0.2181914691
4.7289570169 0.7290234091 -0.2192617366
4.7701841373 0.7332705853 -0.2247777251
4.6663520385 0.7206522126 -0.2175815428
4.8084397454 0.7397632819 -0.2210050717
4.7119644258 0.7288044926 -0.2116512588
4.6513469792 0.7243945081 -0.1971476484
4.6148433272 0.7199860981 -0.1945209653
4.6444403523 0.7186790365 -0.2136597464
4.7104492839 0.7327199562 -0.1972613035
4.6797556189 0.7283163475 -0.1974808438
4.8297479921 0.7497215132 -0.1965213453
4.8260922873 0.7529576258 -0.1810836960
4.6650044853 0.7277893359 -0.1919415077
4.6320828958 0.7237014693 -0.1898112109
4.9063605465 0.7644610439 -0.1799480051
4.8737762629 0.7562013728 -0.1951977890
4.8425931662 0.7546693042 -0.1835406637
4.7287440988 0.7372737978 -0.1895986774
4.8887920605 0.7612228524 -0.1831643151
4.6797331642 0.7350349665 -0.1705801803
4.6899211237 0.7331670061 -0.1841458161
4.6276891895 0.7265343020 -0.1756095844
4.6109196202 0.7250139092 -0.1722097811
4.7158782851 0.7371774622 -0.1825819297
4.6440301088 0.7290994393 -0.1744585616
4.7011205865 0.7385894065 -0.1682616500
4.7384676293 0.7412230814 -0.1789325645
4.7917532050 0.7502542964 -0.1724329996
4.8276518898 0.7569894049 -0.1649822009
4.7478698304 0.7463606635 -0.1628280858
4.8793934212 0.7646403417 -0.1625784404
4.6648126271 0.7354461724 -0.1598303561
4.7170927260 0.7431203704 -0.1576843254
4.8956158275 0.7663090567 -0.1654863968
4.8164526197 0.7570464634 -0.1569106545
4.9121755081 0.7694055609 -0.1614678255
4.7812607899 0.7520127235 -0.1576928429
4.8825967691 0.7688052201 -0.1439166091
4.6516939828 0.7386331096 -0.1347265669
4.6853246702 0.7412351566 -0.1450552647
4.8525111202 0.7650584424 -0.1417937518
4.6164076485 0.7341396945 -0.1327330458
4.6547207674 0.7364061585 -0.1479999709
4.7106104108 0.7449413181 -0.1440450778
4.6958427180 0.7447233290 -0.1348722557
4.7872412763 0.7550495962 -0.1466190195
4.6292768683 0.7314939380 -0.1549491894
4.7561160044 0.7540742787 -0.1287334864
4.7435216248 0.7520884969 -0.1303472702
4.7301993564 0.7516277520 -0.1215916399
4.8320363188 0.7669179717 -0.1134341397
4.8609951288 0.7710067949 -0.1127680655
4.9082618340 0.7776265129 -0.1120259407
4.9149465180 0.7764913066 -0.1251374284
4.8443827089 0.7670368400 -0.1235143880
4.8117516356 0.7649118432 -0.1084267228
4.6393905509 0.7419386732 -0.1036934093
4.7671609465 0.7578882650 -0.1140948247
4.7302957754 0.7543258360 -0.1044617270
4.6521560483 0.7417264919 -0.1162534858
4.9203971891 0.7831362581 -0.0808054057
4.8681249144 0.7761506481 -0.0793548090
4.7681149361 0.7614623531 -0.0881215778
4.8924310643 0.7773982040 -0.0974828441
4.6749898079 0.7472648626 -0.1008243297
4.7505390349 0.7577611222 -0.0994318804
4.8454137484 0.7711090725 -0.0962285739
4.8801538173 0.7752689466 -0.1014040336
4.7862596974 0.7639845251 -0.0877760637
4.8120225059 0.7676208860 -0.0868034191
4.6914541570 0.7496919387 -0.0993026978
4.6128273597 0.7421761888 -0.0710202157
4.6682261742 0.7490199297 -0.0774403775
4.7954414445 0.7668922710 -0.0733686509
4.6511056914 0.7467390439 -0.0769035066
4.8539650992 0.7749186504 -0.0732014435
4.6350198061 0.7443419172 -0.0786156016
4.7433908804 0.7586880399 -0.0828136950
4.7065620310 0.7549019108 -0.0718844534
4.7211986776 0.7553127533 -0.0857706224
4.7624635205 0.7621083445 -0.0757405249
4.6078089883 0.7383740980 -0.0981992150
4.6241539503 0.7411426111 -0.0935564298
4.8327101910 0.7734393017 -0.0540817862
4.8495832472 0.7758945258 -0.0519481933
4.8803216476 0.7799887708 -0.0532526340
4.7248406841 0.7582367729 -0.0609509855
4.9245758514 0.7859171163 -0.0546665144
4.9080740618 0.7828762429 -0.0655254927
4.7931516055 0.7680676271 -0.0538102505
4.7577170175 0.7641045242 -0.0419303023
4.6108809810 0.7431149895 -0.0553302989
4.6852429899 0.7543506458 -0.0402345376
4.7728914868 0.7655163511 -0.0509305574
4.6447637465 0.7471184782 -0.0637560311
4.8328343740 0.7745649735 -0.0368643655
4.7511975657 0.7637609135 -0.0273844560
4.8783797070 0.7814144634 -0.0160344221
4.8490010513 0.7769690220 -0.0303360313
4.6651521267 0.7517790065 -0.0362820109
4.8666216817 0.7790635140 -0.0399289575
4.8296950245 0.7745948386 -0.0223474006
4.9216417442 0.7872539814 -0.0174324447
4.6360318286 0.7481208406 -0.0266809191
4.6430648750 0.7495747451 -0.0108724489
4.6084212321 0.7440304500 -0.0373409160
4.7596841367 0.7653270257 -0.0142922464
4.9065001737 0.7854354132 -0.0097850470
4.6953486763 0.7561703904 -0.0272330339
4.6217363024 0.7463212903 -0.0220854716
4.7799165758 0.7680257655 -0.0159707037
4.7294206236 0.7611462580 -0.0163584705
4.6094025564 0.7447913293 -0.0174012669
4.6564586064 0.7514363460 -0.0033577099
4.9012596695 0.7845678495 0.0114118486
4.8419349727 0.7766514832 -0.0035729072
4.7714888063 0.7669930437 0.0047515508
4.9166851045 0.7867054204 0.0072926890
4.8475819585 0.7772402006 0.0145386195
4.8242828565 0.7742747957 -0.0058890230
4.7781669327 0.7677513274 0.0198832551
4.7029435098 0.7576194206 0.0103984088
4.6082689851 0.7448716174 -0.0019426715
4.6785015589 0.7543607738 0.0039306106
4.7189300350 0.7597331809 0.0164090502
4.7990668832 0.7706113996 0.0179607947
4.7366597895 0.7622415519 0.0064675421
4.6599225792 0.7516190784 0.0235150154
4.8868821739 0.7815753770 0.0417523530
4.7072785205 0.7577117291 0.0303993782
4.7609075565 0.7652643928 0.0254584016
4.7818335223 0.7676054841 0.0353510219
4.7950103199 0.7686951608 0.0490805437
4.6461279987 0.7482022367 0.0535428654
4.6798297002 0.7529098968 0.0511909014
4.7824391121 0.7667772367 0.0531161790
4.6800614060 0.7538713738 0.0330498687
4.7207786551 0.7593036784 0.0351892229
4.7344187785 0.7604459638 0.0491227117
4.8456301568 0.7740758109 0.0683588565
4.8281276688 0.7727316906 0.0570982228
4.9049693553 0.7812063217 0.0788107092
4.8670368208 0.7763190566 0.0756748168
4.8141342327 0.7701732084 0.0640812857
4.6695609718 0.7486679099 0.0831393423
4.7624865625 0.7623841832 0.0720360606
4.8031435243 0.7670554800 0.0815056580
4.6369106558 0.7441681105 0.0835979038
4.6674559255 0.7500244614 0.0654283590
4.8284563096 0.7706784732 0.0797017734
4.7549878340 0.7601378684 0.0852082277
4.9103534528 0.7793335892 0.1012789618
4.9104404747 0.7773192445 0.1163223775
4.9150291247 0.7816304285 0.0889880140
4.8184377455 0.7671219101 0.0983445149
4.8900902081 0.7780295521 0.0903266998
4.8704864370 0.7750191506 0.0927142750
4.7285880184 0.7526011846 0.1146564352
4.7094229714 0.7516636267 0.1021017035
4.7614260323 0.7584479036 0.1046878301
4.6366964553 0.7418607991 0.1008234834
4.8010867732 0.7628075478 0.1127068388
4.8940623242 0.7711777828 0.1393620416
4.6852963280 0.7451915622 0.1233622212
4.8438718453 0.7673708906 0.1217302674
4.7804073822 0.7581450378 0.1243565257
4.6698679912 0.7438072304 0.1191516465
4.6536733485 0.7419135988 0.1172202537
4.7132923215 0.7487256523 0.1252294904
4.8258548138 0.7616294075 0.1401117807
4.9109885050 0.7744935943 0.1338309156
4.6565886481 0.7383168066 0.1398093883
4.6301530517 0.7382621432 0.1195056917
4.6045491513 0.7355117036 0.1150772569
4.6217475238 0.7337637093 0.1383605687
4.7244398881 0.7468160050 0.1447078927
4.6999555795 0.7447108269 0.1375077477
4.7412835414 0.7500471854 0.1395903506
4.9186088473 0.7706950806 0.1596635828
4.8801090478 0.7669280617 0.1524303128
4.8903116370 0.7631997737 0.1758301781
4.9110000890 0.7664343217 0.1742161443
4.8751483827 0.7618669314 0.1722958835
4.6933610227 0.7363439799 0.1733031683
4.6165712114 0.7271813309 0.1663716537
4.6483458076 0.7305404184 0.1712046716
4.7157891115 0.7422002778 0.1608733305
4.6676325690 0.7349510399 0.1633584717
4.7732332960 0.7475736759 0.1727895714
4.8391792605 0.7554106282 0.1788867746
4.7118903637 0.7355280361 0.1870174422
4.8704719891 0.7535451975 0.2032286342
4.9112659661 0.7581911354 0.2073565628
4.7937450173 0.7444759049 0.1967196005
4.7498508695 0.7404173690 0.1887125395
4.7766378531 0.7442785705 0.1883504599
4.8590034739 0.7503232936 0.2093310453
4.8054346993 0.7432851689 0.2074638089
4.6371683975 0.7261870567 0.1826069676
4.6802309951 0.7301061508 0.1906994924
4.6642635387 0.7292139250 0.1855721580
4.7003507387 0.7299214485 0.2021225272
5.2356373267 0.1839051439 0.8086033471
5.1593610464 0.1965549198 0.7951011497
5.1405461550 0.1972187942 0.7923668808
5.0890547155 0.1988906555 0.7849190972
5.0725506466 0.2028383665 0.7817037154
5.1777029092 0.1968515462 0.7975375692
5.1056271620 0.1978818829 0.7874304133
5.2502527981 0.1997804837 0.8067484685
4.9973912371 0.1902398298 0.7744832135
5.0287799171 0.1902824463 0.7787655656
5.1221052565 0.1878252922 0.7921251535
5.1689938767 0.1849050051 0.7992465082
4.9664107725 0.1760879244 0.7736816952
5.0830906474 0.1816031130 0.7882999625
5.1985383762 0.1534859855 0.8098562333
5.1316586439 0.1721539577 0.7970708954
5.1804339016 0.1717521024 0.8037608304
5.2316765908 0.1606180342 0.8129249675
5.1828937943 0.1543549061 0.8075628989
5.0146374020 0.1708203802 0.7814785772
4.9993582716 0.1696925862 0.7796328792
5.1361840950 0.1584538246 0.8004157460
5.1023187439 0.1460317181 0.7983032326
4.9555837418 0.1476350961 0.7780986610
5.0301669872 0.1443947739 0.7888519244
4.9512411593 0.1660975078 0.7738290580
5.0818806230 0.1543708809 0.7938708499
5.0013794429 0.1412709632 0.7855736016
4.9474943076 0.1367705937 0.7790901511
5.0924235925 0.1263188979 0.8002244691
5.2197259985 0.1367790634 0.8157100136
5.1261564196 0.1401239102 0.8025985874
5.0452793114 0.1389547050 0.7919020780
5.1608975148 0.1348684911 0.8080957288
5.2345463302 0.1406128819 0.8171027925
5.1755477976 0.1241661464 0.8117439213
5.1951916575 0.1199047664 0.8150543521
4.9845174979 0.1276857551 0.7854944577
5.1460191965 0.1169390258 0.8089043821
5.0758449404 0.1100285487 0.8005474420
5.0280376468 0.1230803188 0.7920706990
4.9353759858 0.1235918939 0.7795254484
5.1897546447 0.0873284709 0.8184473178
5.0590133567 0.0984082707 0.7996879723
5.1244742626 0.1028850764 0.8079315356
5.2035397267 0.0880727419 0.8202060390
4.9552164232 0.1059248818 0.7849414186
5.2007793932 0.1034255510 0.8180769437
5.2288451137 0.0881530101 0.8235819476
5.1512650719 0.1032649250 0.8114718096
5.1797301313 0.0981027098 0.8158713181
5.0123277897 0.1045941068 0.7927337664
5.2349287921 0.1032933262 0.8226602759
5.1643992858 0.1075883346 0.8127331985
5.0431776940 0.0783870964 0.7998646451
5.0778608137 0.0867690796 0.8035433842
5.0305488661 0.0924937833 0.7965582408
4.9913616775 0.0949298914 0.7910369177
4.9625557897 0.0752537293 0.7894390245
4.9884738953 0.0755413481 0.7928731216
5.1652021966 0.0840086465 0.8155434743
5.1455008616 0.0832226399 0.8129981251
4.9310761837 0.1043743293 0.7818899103
5.0659201376 0.0755810803 0.8032285560
4.9605313255 0.0880573369 0.7877005383
5.0875414303 0.0667398519 0.8067663771
5.1348648295 0.0599960637 0.8135641200
5.2023623039 0.0716551546 0.8217081282
5.2014582766 0.0566054738 0.8226851244
5.2273831061 0.0715550736 0.8250495149
5.1877534106 0.0659547654 0.8201771409
5.1734995512 0.0622325727 0.8185492077
5.1539390435 0.0476215518 0.8170081742
5.0925923116 0.0471824823 0.8088655577
5.0133822056 0.0564748294 0.7976329850
5.0782044656 0.0546281024 0.8064054048
4.9982399631 0.0635518554 0.7950991841
5.2418863977 0.0236817061 0.8296618505
5.0949700827 0.0277217403 0.8099998608
5.1774347127 0.0382775502 0.8206326685
4.9910758351 0.0400506096 0.7957975020
5.2275680485 0.0302772410 0.8275504480
5.1681830890 0.0226523751 0.8198942169
5.0743523173 0.0400486328 0.8068704945
5.1343953961 0.0354973485 0.8149973965
5.0064158543 0.0393196285 0.7978602038
4.9417268481 0.0276289800 0.7896266441
5.2110360760 0.0104027265 0.8259776746
4.9506271948 0.0091344862 0.7913920563
4.9573934230 0.0282401337 0.7916905345
5.1275588921 0.0186381046 0.8146189040
5.0695026866 0.0213501426 0.8068140627
5.0400472538 0.0111031810 0.8032199343
5.2487064085 -0.0200367874 0.8307451896
5.2205104289 -0.0044339041 0.8271519346
5.2494133459 0.0088447598 0.8311245389
5.2345347155 -0.0086308374 0.8289743844
5.1467086776 -0.0138574144 0.8172500689
5.2047918653 -0.0083881291 0.8250237585
5.2536956558 -0.0036101103 0.8315706140
5.0957993565 0.0070029968 0.8106900108
5.0656542934 -0.0177221739 0.8064392447
5.0303134281 -0.0024149326 0.8018934300
5.0458968980 -0.0084081083 0.8039053693
4.9971998897 -0.0018532200 0.7974979781
5.1728187426 -0.0242627727 0.8206174734
5.0978744820 -0.0135115307 0.8107631083
5.1287509543 -0.0325747252 0.8143607568
5.2048406070 -0.0508782364 0.8235480509
5.1851070897 -0.0359113162 0.8216892731
5.2513027246 -0.0363801788 0.8304741833
5.2228950292 -0.0481094789 0.8260925673
4.9879316247 -0.0323254756 0.7956340858
4.9594521074 -0.0410172995 0.7913986338
5.0231102279 -0.0487766005 0.7994721371
4.9352845053 -0.0483423685 0.7878070494
5.0544869019 -0.0537410619 0.8033930782
4.9455915095 -0.0294935558 0.7901448740
5.1041163514 -0.0569291709 0.8098340541
5.0813835337 -0.0433493383 0.8075050290
5.0056290165 -0.0490776953 0.7971304023
5.1559139045 -0.0502041000 0.8170717180
5.2234840263 -0.0709634709 0.8245209671
5.1361638847 -0.0589969060 0.8139769631
5.0864728527 -0.0671290831 0.8065898397
5.2410628907 -0.0749148635 0.8265004780
4.9675524173 -0.0574782966 0.7916131662
5.2077149392 -0.0692196252 0.8225781099
5.0566217309 -0.0793517661 0.8014710714
5.0773499309 -0.0806447460 0.8041176786
5.1350175734 -0.0864287427 0.8112777861
5.0138898279 -0.0790224269 0.7957981519
4.9988710125 -0.0691714591 0.7947079456
5.2114928031 -0.0896975454 0.8211816323
4.9541155801 -0.0875057096 0.7870325694
5.1154244081 -0.0848693342 0.8088074037
4.9543667225 -0.0675940093 0.7889143139
5.0778712411 -0.0982135765 0.8022682494
5.0640864727 -0.0987175716 0.8003518197
5.2296406407 -0.0957687423 0.8229498962
5.1255996067 -0.1122974859 0.8067715681
5.1748377464 -0.1147365830 0.8130458797
4.9771172386 -0.0932574366 0.7894246818
5.2505189370 -0.1142885442 0.8232551053
5.0781115516 -0.1189050743 0.7995134026
4.9380971715 -0.0946450039 0.7840051846
5.1073039851 -0.1172087154 0.8036566024
5.0487346165 -0.1104265827 0.7967159678
5.0190610342 -0.1183021363 0.7916759362
5.1585964886 -0.1169709738 0.8105669542
5.2525748268 -0.1467612296 0.8183631677
5.1954254628 -0.1502440680 0.8100332956
5.0635807339 -0.1248478849 0.7967348719
5.2104867209 -0.1528918279 0.8115972957
5.1919609814 -0.1285608064 0.8134045791
5.2180392266 -0.1357536220 0.8156508343
5.2341517636 -0.1415918836 0.8167918655
5.1198118407 -0.1449011615 0.8007739018
5.1525632555 -0.1339023207 0.8071415207
5.1347953932 -0.1482019707 0.8022117951
5.0868025530 -0.1520016475 0.7950616445
5.0490386150 -0.1452453895 0.7911609228
5.0026540489 -0.1350489050 0.7867057746
5.0107807054 -0.1503749103 0.7850892235
5.1503980453 -0.1748962585 0.7989180453
5.1147488056 -0.1681520008 0.7955507818
5.1672979720 -0.1627645541 0.8038869166
5.2420913202 -0.1714231899 0.8121596647
5.1976299228 -0.1830989341 0.8035405847
5.2430064948 -0.1869589885 0.8088660970
5.1020248106 -0.1602097220 0.7955667359
5.0245693187 -0.1634979702 0.7843032375
5.0744552275 -0.1638622726 0.7910114907
5.1186005913 -0.1849615384 0.7923765887
4.9441797309 -0.1691866556 0.7721123513
5.0041195680 -0.1864683912 0.7764666538
5.0860174684 -0.1788561281 0.7892860007
4.9633028214 -0.1774807194 0.7728897841
5.0069640532 -0.1689173654 0.7807151955
5.0185375946 -0.1770307598 0.7805050467
5.1956799177 -0.1997667463 0.7993407771
5.1611385906 -0.1986088442 0.7948986492
5.1203055780 -0.2041018647 0.7878374106
5.0980409453 -0.1932343921 0.7876438011
5.0671385019 -0.1902844545 0.7841745157
5.1773046511 -0.1960410360 0.7977979264
4.9861052992 -0.1908501191 0.7728876506
5.1673988293 -0.2132084092 0.7919080930
4.9294066862 -0.2047431309 0.7614300287
4.9804505206 -0.2083796828 0.7674865512
4.9372852972 -0.1912115699 0.7660822098
5.0921073543 -0.2088090435 0.7827200516
5.1233600567 -0.2211464862 0.7837612822
4.9570070106 -0.2157280128 0.7623260285
5.0776861322 -0.2214719425 0.7773977486
5.1506929441 -0.2463718057 0.7799060515
5.2226990594 -0.2419914238 0.7912720573
5.2039966186 -0.2536937577 0.7850607246
5.1295315797 -0.2361386355 0.7801198643
5.2058051992 -0.2366624433 0.7905664475
5.2221281988 -0.2277885391 0.7955742716
4.9734035022 -0.2211071009 0.7630427315
5.0601036507 -0.2228142672 0.7745743746
5.0437131330 -0.2316021607 0.7695836945
5.1646484198 -0.2408330323 0.7835557065
5.1846092027 -0.2394607176 0.7867552246
4.9452327077 -0.2363227060 0.7544307100
5.1733117041 -0.2544216790 0.7805684900
4.9980687031 -0.2365756440 0.7617011288
4.9793640148 -0.2456311611 0.7563060467
5.1072647837 -0.2482803832 0.7732772490
5.1849915201 -0.2644204540 0.7788454720
5.1734055653 -0.2765244494 0.7729224020
4.9987104896 -0.2544785834 0.7561033739
5.1591906157 -0.2647717414 0.7750830928
5.1914737661 -0.2801995028 0.7741676090
5.2347348967 -0.2733575996 0.7826920270
5.1282739597 -0.2676843367 0.7696917127
5.2025033197 -0.2700861446 0.7793067764
5.0643680874 -0.2612804508 0.7629505194
5.2460561881 -0.2886462806 0.7788702408
5.1053927108 -0.2781693678 0.7627497545
4.9356109669 -0.2721838208 0.7409319554
5.0859811274 -0.2860608771 0.7572161131
5.0672624634 -0.2781247367 0.7573892594
5.2321770339 -0.2908697943 0.7761253224
4.9867027394 -0.2643914186 0.7508973373
5.0517106592 -0.2713258960 0.7576058862
4.9676406828 -0.2676727096 0.7470467724
4.9804945754 -0.2808731482 0.7441811114
5.1234572593 -0.2809954898 0.7642952945
5.0828672243 -0.2701434810 0.7624179490
4.9308096081 -0.2494677884 0.7483051994
5.0263857042 -0.2665216802 0.7557376465
5.2297860781 -0.3169027759 0.7654259186
5.2375277996 -0.3043687175 0.7715687296
5.2207897124 -0.3015177362 0.7703165699
5.1633784355 -0.3067930027 0.7599755212
5.0670636662 -0.2932067402 0.7516381402
5.0433256193 -0.2849788708 0.7515429786
5.1138830687 -0.2914489789 0.7590495031
5.2104478666 -0.3200906881 0.7613759715
4.9705850883 -0.2949708020 0.7371121350
5.0959625480 -0.3125294510 0.7480163945
4.9441330734 -0.2951459903 0.7332533583
4.9943515168 -0.2966457286 0.7398432224
5.0834287228 -0.3264008484 0.7401911488
5.0627970431 -0.3211396708 0.7395538526
5.1714568900 -0.3338755254 0.7496551784
5.1895504829 -0.3453752512 0.7471122163
5.0971315811 -0.3285632774 0.7412143896
5.2465575044 -0.3290902824 0.7627576306
5.1344942923 -0.3351350470 0.7437000497
5.0978715508 -0.3464266116 0.7332753221
4.9712030652 -0.3316445651 0.7214707850
5.0179336594 -0.3264326137 0.7306301502
4.9483687385 -0.3329728069 0.7175440794
5.0433257333 -0.3310688157 0.7322428690
5.1303427542 -0.3488978644 0.7368951538
5.2029861409 -0.3620171234 0.7411837687
5.0867372089 -0.3623638789 0.7237288545
5.0714504328 -0.3591096368 0.7230873136
4.9892656883 -0.3446458277 0.7181188890
5.1756114981 -0.3759362339 0.7301384933
5.0434690691 -0.3460525394 0.7254715563
5.1355294023 -0.3615947540 0.7313675825
5.1734647074 -0.3527693138 0.7414299632
5.0577676336 -0.3549260764 0.7231499620
5.0058041769 -0.3449912207 0.7204043375
5.0130398027 -0.3695251248 0.7091842735
5.1047290511 -0.3726370120 0.7212548562
4.9971451193 -0.3712110021 0.7059765184
4.9905336431 -0.3609977857 0.7101122495
5.1316206897 -0.3774669348 0.7228318464
4.9628934750 -0.3442999959 0.7143718162
5.0724366589 -0.3744676215 0.7155369453
5.1377313150 -0.3960392463 0.7136250033
5.0565478747 -0.3872388436 0.7061661492
4.9777998742 -0.3720054610 0.7026412855
5.1941391082 -0.4012441643 0.7193115821
5.2410757518 -0.3941065542 0.7303971311
5.1873784072 -0.3884004312 0.7254000329
5.1804946652 -0.4026802808 0.7164429164
5.0441256876 -0.3918035800 0.7017498703
4.9810312451 -0.3889570688 0.6937407663
5.1645535153 -0.4048303493 0.7128297648
4.9429261721 -0.3862600708 0.6894455359
4.9621240241 -0.3795778719 0.6960643714
4.9943016370 -0.3892263718 0.6956077765
5.1251674377 -0.4060875066 0.7061492390
5.2140691463 -0.4388770419 0.7001902532
5.0499277846 -0.4121046774 0.6909585977
5.2119270503 -0.4235292768 0.7092088997
5.1895966132 -0.4264682622 0.7039427937
4.9700213442 -0.4000630350 0.6858603054
5.1283040660 -0.4212816776 0.6975642960
4.9484795904 -0.4183614324 0.6713578205
5.0334841932 -0.4293900722 0.6778667988
4.9493675745 -0.3997420859 0.6828415482
4.9663535553 -0.4157343479 0.6757403180
5.0245903656 -0.4151757755 0.6851440154
5.1073597481 -0.4334449589 0.6868931684
4.9996340799 -0.4206442484 0.6779279289
5.2542366335 -0.4550317410 0.6961549814
5.1211253864 -0.4437104427 0.6824424873
5.0453607549 -0.4406640426 0.6723696810
5.1504370872 -0.4478410195 0.6843689266
5.2239615285 -0.4551711217 0.6912243197
5.2089138187 -0.4681391462 0.6801634510
5.1664283471 -0.4586831896 0.6796867873
4.9633645377 -0.4484993326 0.6540373678
4.9393425975 -0.4478789577 0.6506130392
5.0703765120 -0.4554720033 0.6664822994
5.0887740497 -0.4516363975 0.6719823717
4.9603384537 -0.4300693762 0.6658562189
5.0525442856 -0.4540578185 0.6645769040
5.0342247091 -0.4519695621 0.6630435925
5.1150901315 -0.4668632949 0.6659351379
5.1671568720 -0.4770156041 0.6670972190
5.1813133995 -0.4772336536 0.6692665352
5.0579037502 -0.4666422393 0.6566910363
5.1516158167 -0.4696965285 0.6698769325
4.9923228576 -0.4591073352 0.6513982059
5.0834117729 -0.4657141808 0.6615628224
5.2518941216 -0.4889317942 0.6723466184
5.0475417604 -0.4831500721 0.6429524434
5.0056698251 -0.4697107339 0.6458633386
4.9616903514 -0.4706045509 0.6379785952
5.1568124579 -0.4898937489 0.6560075804
4.9373996585 -0.4658335171 0.6374617281
5.0875552829 -0.4811364041 0.6510013045
5.1185312938 -0.4876299757 0.6513619331
4.9683270995 -0.4591528033 0.6474185601
5.1741414605 -0.5115795285 0.6421192515
5.1379522985 -0.4959331624 0.6484053036
5.2168823791 -0.5238317789 0.6396412104
5.0631274069 -0.4890833119 0.6411466696
5.1962715850 -0.5180144319 0.6407638957
5.0844909753 -0.4943950369 0.6405533748
5.2377462593 -0.5180940308 0.6477399353
5.1079150269 -0.5042393446 0.6367094684
5.2127551394 -0.5089712945 0.6507447125
5.0820290832 -0.5156889537 0.6232213299
4.9758728919 -0.4937313332 0.6226454262
5.0189398216 -0.4975410095 0.6269288303
5.1427372234 -0.5151225263 0.6339749075
5.0397750845 -0.5028551912 0.6262439183
5.2296083824 -0.5407450252 0.6275218700
5.1916364477 -0.5403012160 0.6212359669
5.2025202432 -0.5332368990 0.6292516468
5.2528119924 -0.5330254109 0.6382676216
5.2157592332 -0.5463150418 0.6202765333
5.2435007849 -0.5464679177 0.6250169598
5.1793896386 -0.5255387634 0.6318407054
5.1692874052 -0.5398923133 0.6176639045
5.0201101229 -0.5305142288 0.5995657307
5.1347953498 -0.5444238988 0.6076901236
4.9688202285 -0.5305989032 0.5904840141
4.9901965811 -0.5165806027 0.6063513281
4.9969844111 -0.5318663492 0.5943356081
5.1878506437 -0.5694888957 0.5939531365
5.1540326177 -0.5629157459 0.5939600305
5.1336477035 -0.5577028438 0.5951385979
5.1749508324 -0.5506231732 0.6093160964
5.0818615771 -0.5483311521 0.5944976051
5.2383094720 -0.5584689035 0.6134996780
5.2517956643 -0.5743729893 0.6010245562
5.0374383516 -0.5412406855 0.5930568681
5.0984829808 -0.5491215048 0.5967856451
5.0215520274 -0.5500750233 0.5818653795
5.0401096645 -0.5570161785 0.5787308827
4.9879873046 -0.5407464955 0.5845057157
5.0665039196 -0.5625012048 0.5783923292
5.0052564108 -0.5416680295 0.5867886579
4.9362006896 -0.5377382520 0.5778894398
5.2020694236 -0.5795282384 0.5869099300
4.9713774400 -0.5563036760 0.5668049070
5.1189000312 -0.5712897526 0.5795244903
5.2260967561 -0.5808484149 0.5901246013
5.1614377873 -0.5900335778 0.5684816782
4.9871041327 -0.5680692707 0.5577899526
5.0793762833 -0.5876683842 0.5553160421
5.1142140837 -0.5876677126 0.5619301135
5.1404078338 -0.5917544948 0.5627342230
5.0327179343 -0.5737434066 0.5606616073
4.9413890092 -0.5646836806 0.5525648434
5.0872244716 -0.5789322401 0.5657163905
5.2234998395 -0.6036159360 0.5663463907
5.2013127970 -0.6069805453 0.5582170790
5.1567030242 -0.6014586980 0.5554866549
5.2233299928 -0.6228992857 0.5449455355
5.1990001846 -0.6166517683 0.5470420167
5.2180807076 -0.6134856428 0.5543351738
4.9664974679 -0.5923131791 0.5278904918
5.0775131429 -0.5997531159 0.5416681159
5.0370535932 -0.6012603675 0.5319722518
5.0186726155 -0.6008094153 0.5288258052
5.0519710082 -0.5976342190 0.5389493409
5.0795810837 -0.6101949151 0.5305081369
4.9476310419 -0.5812773826 0.5363764375
5.2538798201 -0.6471591606 0.5223581252
5.1508088437 -0.6254358367 0.5270808054
5.1707212926 -0.6287224601 0.5272648091
5.0986315840 -0.6222297127 0.5200864959
5.2212882828 -0.6365485710 0.5283586798
5.1840980510 -0.6242803654 0.5353992044
5.0842094829 -0.6196742390 0.5201641007
5.0021230680 -0.6175891086 0.5055962393
4.9819258297 -0.6105179274 0.5099119732
5.1419296672 -0.6340906939 0.5148073934
5.1810176746 -0.6412573167 0.5143072774
5.0307310841 -0.6214904273 0.5068490430
4.9424285695 -0.6041837653 0.5093241289
4.9563051040 -0.6184454477 0.4950313544
4.9829311288 -0.6254934555 0.4917778002
5.2011007761 -0.6513022521 0.5057496276
5.2320104654 -0.6662537112 0.4929177389
5.2454601089 -0.6557060482 0.5096969169
5.0867739264 -0.6432689601 0.4912272103
5.2043715718 -0.6620527319 0.4923690632
5.0744008471 -0.6378770335 0.4955860258
5.0416622091 -0.6375266237 0.4888702844
5.0421807157 -0.6471348346 0.4763843659
5.1788197429 -0.6612989820 0.4877573444
5.0867526926 -0.6530909056 0.4783427220
5.0190937519 -0.6429640654 0.4767937100
4.9345045231 -0.6192640438 0.4893330758
5.0045467254 -0.6302943933 0.4902196211
5.1402962402 -0.6644301750 0.4746203500
5.2054474807 -0.6730357751 0.4774228950
5.2230528450 -0.6755663779 0.4778867584
5.1133148079 -0.6588429213 0.4763536622
5.1792261061 -0.6716959113 0.4732576197
5.0114406028 -0.6549199552 0.4583364433
4.9569884559 -0.6459602416 0.4585218568
5.1271264800 -0.6731762903 0.4590566277
4.9957199103 -0.6536999701 0.4564351801
5.0815799364 -0.6629826736 0.4630723470
5.0667403384 -0.6685840187 0.4516191864
5.1653258211 -0.6909080015 0.4413085257
5.2236283488 -0.6954099978 0.4486515768
5.1906747117 -0.6910204684 0.4473868859
5.2515861817 -0.6918086216 0.4611826468
5.1341712624 -0.6832912824 0.4455355293
5.2462260165 -0.7023842358 0.4433182881
5.0550739912 -0.6751604851 0.4387378298
4.9847834275 -0.6635503138 0.4395552558
4.9564746468 -0.6698072319 0.4227839501
5.0727985728 -0.6829876854 0.4308680610
5.0028274045 -0.6681531810 0.4368076277
5.1480950211 -0.6927147197 0.4342312299
5.1790325629 -0.6977259017 0.4340261353
4.9334290841 -0.6608756632 0.4310682803
4.9848875952 -0.6766867574 0.4190336018
5.0376234903 -0.6842258980 0.4202526552
5.2012874321 -0.7014261414 0.4337292963
5.0992288220 -0.6862434239 0.4322966685
5.1253779283 -0.6910112247 0.4312908201
5.1528846368 -0.7089915948 0.4083454315
5.0246646222 -0.6851733943 0.4153783062
5.2220894056 -0.7126674802 0.4203069061
5.1624965588 -0.7027852881 0.4215366505
5.2162050399 -0.7201930319 0.4058352695
5.1889105962 -0.7140171197 0.4092303460
5.1387770561 -0.7106241488 0.4018183881
4.9334290204 -0.6754055821 0.4080574312
4.9655556299 -0.6886894701 0.3937368647
5.0125953185 -0.6882500883 0.4069104561
5.1063976363 -0.7094857154 0.3952237997
4.9610788852 -0.6802977783 0.4069597665
5.0322707843 -0.7043362749 0.3839850785
5.1986959427 -0.7233893968 0.3952693002
5.0862711038 -0.7147498431 0.3796396211
5.2024671344 -0.7331646073 0.3778446529
5.2239970184 -0.7278592837 0.3940076925
5.0493495236 -0.7075283030 0.3828027679
5.1316409280 -0.7200246692 0.3825631916
5.0003812911 -0.7002413762 0.3826631033
5.0638128925 -0.7126294030 0.3772640562
4.9811740537 -0.7033377942 0.3713404930
5.1527041543 -0.7270541235 0.3752527780
4.9432185557 -0.6939656649 0.3782790830
5.0054801484 -0.7076081150 0.3701735035
5.1251045581 -0.7282688448 0.3650426571
5.1947586082 -0.7414863157 0.3588278549
5.0751064290 -0.7258157096 0.3547466469
5.2252165749 -0.7498716363 0.3506440790
5.1435483704 -0.7351542551 0.3562947768
5.0362052732 -0.7201329192 0.3546532565
5.1014685535 -0.7252105342 0.3641583152
4.9805076096 -0.7120929336 0.3543171320
5.1868825762 -0.7355124285 0.3689274498
4.9967907839 -0.7131797201 0.3570664126
5.2416537316 -0.7430308806 0.3700715012
5.0901574530 -0.7334296601 0.3434225686
5.0575257648 -0.7273852019 0.3460242494
5.0255382287 -0.7303612592 0.3299015726
5.0169606163 -0.7233302831 0.3420019777
5.2158121671 -0.7528778033 0.3414330751
4.9580730983 -0.7219707031 0.3266664653
5.1210514261 -0.7490777737 0.3183990205
5.1009676972 -0.7425541044 0.3268820156
5.1990602108 -0.7614433962 0.3158386710
5.2247687060 -0.7611744877 0.3251705473
5.1726106255 -0.7553697966 0.3211126632
5.0613197359 -0.7389720554 0.3218523144
5.2448958170 -0.7686824502 0.3143966237
5.1888216723 -0.7560864260 0.3249212513
5.2042520812 -0.7553753438 0.3318098816
5.0380124908 -0.7356391496 0.3217701343
5.0708021746 -0.7455019154 0.3097663934
5.0402228320 -0.7422792674 0.3069644232
5.0891040824 -0.7460056092 0.3147815106
5.1404897902 -0.7563175502 0.3080201405
4.9638801683 -0.7275406897 0.3156471706
4.9426163426 -0.7302337859 0.3021412810
5.1036481795 -0.7567243772 0.2935010051
5.2306646520 -0.7697312552 0.3068158748
5.1690427503 -0.7611135219 0.3064467251
4.9620980600 -0.7359362485 0.2952728788
5.0694238393 -0.7516760845 0.2939877122
5.2010202971 -0.7736201606 0.2854308876
5.2496043493 -0.7762376843 0.2967468259
5.0505989346 -0.7503148456 0.2905190881
5.1584941762 -0.7652556441 0.2915565991
4.9700658644 -0.7449585996 0.2744472708
4.9435130767 -0.7397536400 0.2782252595
4.9587701873 -0.7412400516 0.2800251351
4.9311310329 -0.7346977693 0.2869254684
5.1158174381 -0.7621138820 0.2838403461
5.2381247582 -0.7813394244 0.2789745434
4.9935958229 -0.7475481827 0.2764386423
5.0697886962 -0.7573186208 0.2792311008
5.1293243463 -0.7664729601 0.2774012813
5.1848514641 -0.7796422337 0.2617883097
5.2254448354 -0.7850114851 0.2627382340
5.1586171441 -0.7772316032 0.2579863508
5.1678625244 -0.7743228580 0.2706364466
5.0789030318 -0.7638538545 0.2646497163
5.0931293916 -0.7679458691 0.2583309134
5.2033381815 -0.7790010806 0.2715090829
5.0496979082 -0.7658617171 0.2462986203
5.2380222524 -0.7922486867 0.2462593246
5.1324802815 -0.7787869329 0.2422902404
4.9643314286 -0.7537458122 0.2467823630
5.0799974506 -0.7690745907 0.2493996158
4.9492870886 -0.7548283536 0.2371840424
4.9321830950 -0.7508936817 0.2418165602
5.1680793719 -0.7822357208 0.2469147887
5.1034883759 -0.7752404749 0.2407442488
5.2159013348 -0.7960841212 0.2223895604
4.9761190937 -0.7597825430 0.2333591619
5.0201728660 -0.7658839101 0.2333233279
5.0384854411 -0.7673814174 0.2369279173
5.0895262550 -0.7762963677 0.2304544689
5.0735632977 -0.7723006364 0.2366868331
5.2489432130 -0.7986060658 0.2295207915
5.1815428095 -0.7879692058 0.2341124765
5.2417240802 -0.8020809081 0.2139348269
