6.0000000000 -0.0201058825 -0.0677393254
6.0000000000 -0.2489638340 -0.0711580831
6.0000000000 -0.4052080262 0.0572390738
6.0000000000 -0.3809471195 0.2832337898
6.0000000000 -0.1003821417 0.1175893054
6.0000000000 -0.1551767461 0.2844729103
6.0000000000 0.0607822125 0.2832000623
6.0000000000 0.0922415108 0.1094717532
6.0000000000 0.4534202893 0.1031024978
6.0000000000 0.4002916377 -0.2103398618
7.0297221286 0.1996701134 -0.5922337984
6.8857155618 0.1799445278 -0.5984988216
6.3216375419 0.1361656658 -0.6099772391
7.1468311273 0.0999885787 -0.6169150797
6.8073803083 0.0422571105 -0.6235562825
6.9508983965 0.0084849224 -0.6249074523
7.1321083536 -0.0712299944 -0.6209008015
6.4038159142 -0.1628164861 -0.6034086753
6.3745644255 -0.0271949613 0.6244073442
6.2153563474 -0.0517721169 0.6228283047
6.5646675872 -0.0654531186 0.6215401701
7.3155569250 -0.0984061757 0.6171763366
6.9334774576 -0.1210548066 0.6131552542
7.1894892031 -0.3021954496 0.5470663064
6.4556262139 -0.3879110389 0.4900106891
6.8942413072 -0.4016256437 0.4788735160
6.5844363535 -0.4526314947 0.4309635226
7.1764841328 -0.4631852258 0.4195813085
6.7935915358 -0.4892071848 0.3889348631
7.0124700901 -0.4989234748 0.3763731544
6.6681803367 -0.5924809754 0.1989149907
6.8696548571 -0.6030454818 0.1641151132
7.2592771521 -0.6071835595 0.1481472946
7.0451471348 -0.6208838639 0.0713704754
6.3628634040 -0.6235887804 -0.0418323479
7.3200954075 -0.5948273105 -0.1917469641
6.6669134102 -0.5781982002 -0.2372505977
6.1612252584 -0.5204491585 -0.3460350657
6.6083637776 -0.4956183907 -0.3807657125
7.0360311244 -0.4575583173 -0.4257032117
7.2020135886 -0.4489497044 -0.4347791860
6.5504988289 -0.3577761374 -0.5124551503
6.8731345277 -0.3383798749 -0.5254442932
6.3900444740 -0.3219194123 -0.5356897152
6.1966023327 -0.2659536169 -0.5655707298
7.2019097663 0.2508207284 -0.5724522624
6.7620650021 0.2775647708 -0.5599705849
7.3284084498 0.3348589533 -0.5277125045
6.2443964782 0.3671474177 -0.5057628451
6.6899010156 0.4246254561 -0.4585677462
7.3549249134 0.4979563690 -0.3776623870
6.7315014852 0.5226815743 -0.3426138228
7.1296629245 0.5328523792 -0.3265933285
6.4543419667 0.5528370286 -0.2914829310
7.3263883577 0.5904497034 -0.2048284505
6.2082408716 0.5975071317 -0.1832137031
6.7796655805 0.6030417805 -0.1641283475
6.4721308365 0.6118463863 -0.1273737712
6.2419452887 0.6238425540 -0.0375673864
6.4233517597 0.6248924711 0.0098584256
6.8675243191 0.6244792278 0.0249992037
7.1545807037 0.6215977357 0.0648686623
7.0087300661 0.6132717415 0.1204338651
6.5104476677 0.5947107468 0.1921030650
7.2164930205 0.5873429091 0.2136629451
6.2117828776 0.5591352680 0.2792130615
7.0418585454 0.5510505039 0.2948253007
7.1794198305 0.5016453968 0.3727446059
6.2339732114 0.4856212989 0.3934033947
7.2416647567 0.3576789672 0.5125216219
6.8439908886 0.3384112653 0.5254238105
6.8206311915 0.1850830043 0.5969400875
6.4052425145 0.1344796923 0.6103521529
6.7614348350 0.0182309535 0.6247008035
7.5000004768 0.3044637071 -0.9118893802
7.5000004768 -0.2881495304 -0.8165080093
7.5000004768 0.0907113818 0.9036066429
7.5000004768 0.3005423290 0.9181452671
7.5000004768 0.4338913770 0.7180792384
7.5000004768 0.8117124021 0.5432866243
7.5000004768 0.7179154084 0.3738017960
7.5000004768 0.8450407138 0.2332700737
7.5000004768 0.6443646155 -0.3394527508
7.5000004768 0.7763256198 -0.5412105506
7.5000004768 0.3180532951 -0.7051306047
7.5000004768 -0.5473022129 -0.5072124498
7.5000004768 -0.7151315990 -0.5205356032
7.5000004768 -0.8040419442 -0.3412113656
7.5000004768 -0.7885936701 0.1053674061
7.5000004768 -0.9039930877 0.2226746907
7.5000004768 -0.8053579564 0.3992637349
7.5000004768 -0.6934005685 0.5702647674
7.5000004768 -0.4129799806 0.6486940432
7.5000004768 -0.1084942999 0.9668853664
7.2873246211 0.1835855178 1.0640526089
7.2964628418 0.0394782546 1.0800684332
7.3794331906 -0.6670006751 0.8622559436
7.3538288958 -0.7768511916 0.7606233742
7.2439548929 -0.8688104882 0.6328886025
7.2547316584 -1.0499305071 0.2357097398
7.2747174348 -1.0750647059 0.0838877125
7.3641157941 -1.0240208859 -0.3687263191
7.3187272993 0.5470522497 -0.9350281290
7.2546968112 0.7900031834 -0.7306099627
7.2259384325 0.9570620809 -0.4847615114
7.3220800559 0.6715054882 0.8505325798
7.3273106971 0.5605874327 0.9281043729
7.1015626625 -0.0605587046 1.0568163372
7.0304616497 -0.2736760361 1.0141361522
7.1912236926 -0.6707689341 0.8321960587
7.0257043868 -0.9498573785 0.4471451059
6.8845735553 -0.9651993824 0.3700275259
7.1127259151 -1.0458906191 0.1713656491
6.9320994241 -1.0334032465 -0.1086286820
6.8760554037 -0.9674211524 -0.3613247229
7.0161881985 -0.9133985239 -0.5153587084
7.2100496118 -0.8978798584 -0.5838688086
6.8931319336 -0.6389228868 -0.8137909450
6.9673965203 0.1140183693 -1.0369166551
7.0303957214 0.3137803746 -1.0024220962
6.9380437099 0.5057701976 -0.9085395032
7.1370680122 0.6934957759 -0.8051338225
7.0734757554 0.9776493349 -0.3975073539
7.0272364702 1.0310294534 -0.1990849332
7.0629629396 1.0502311333 0.0905341594
6.8877308335 1.0218813767 0.1580018201
7.1963428560 0.9980941633 0.3840345744
7.0771595999 0.8120300377 0.6746899576
7.0390502815 0.7070919098 0.7781446096
6.9286463238 0.4758606981 0.9233394977
7.1980780650 0.4165732912 0.9851729979
6.6669319308 0.1918634555 0.9896246214
6.5510190382 0.0610106042 0.9924887400
6.5403754726 -0.1451241964 0.9823981737
6.7683459189 -0.3609028339 0.9539882365
6.6497027248 -0.4870095084 0.8802661464
6.5264297117 -0.5266554988 0.8399624675
6.7846819100 -0.6616190701 0.7788681065
6.5401559419 -0.8969794488 0.4260817069
6.6361630692 -1.0029044938 -0.0544361167
6.6434470028 -0.7861780271 -0.6264224837
6.6358748170 -0.6306501335 -0.7816459965
6.6844896284 0.2300670271 -0.9835291550
6.6074751045 0.7592616599 -0.6523167274
6.7189383271 0.8534059224 -0.5478797786
6.5203005030 0.8687546131 -0.4762009313
6.8215155409 0.9812630983 -0.3006035386
6.5221016706 0.9782926925 -0.1575856161
6.7271693061 0.9791371745 0.2680498758
6.5256878811 0.9074587659 0.3990922862
6.6067432851 0.8600198353 0.5120153625
6.8623953190 0.8312185598 0.6100930983
6.5299419334 0.6803258180 0.7217687071
6.7401881703 0.6320169721 0.7963891540
6.6574053843 0.5157872839 0.8647714094
6.6894634084 0.3917238096 0.9316532682
6.3717746132 0.1674258951 0.9581846251
6.3974194149 0.0248411232 0.9754729047
6.2615248436 -0.0366185082 0.9586066788
6.2953887717 -0.1741271764 0.9475859741
6.2351272719 -0.4397504309 0.8489798055
6.1820938704 -0.5579993672 0.7684498512
6.4652831099 -0.9646445852 0.1943237297
6.2742545038 -0.9608900095 -0.0052914016
6.2516603832 -0.9465527954 -0.1485922406
6.2055776952 -0.8922909255 -0.3334148010
6.4449374459 -0.8852342718 -0.4240677071
6.2337513087 -0.7023919744 -0.6484922050
6.4399971459 -0.6738298743 -0.7129593296
6.3490310566 0.0827476354 -0.9663893578
6.4971807394 0.2255686321 -0.9617972450
6.2689447805 0.2861904418 -0.9165683042
6.5071639301 0.4245516362 -0.8933905381
6.3975724756 0.5532456692 -0.8038170541
6.3030622488 0.9641487448 -0.0203267226
6.3829012510 0.9384961704 0.2607655426
6.3503578842 0.8869225473 0.3930483191
6.2121616817 0.7759846087 0.5538160155
6.3733750638 0.7408646687 0.6306162591
6.2346309763 0.6301077862 0.7190391854
6.1742403270 0.4686343986 0.8249409932
6.2320930502 0.3349147848 0.8951391814
5.9932220531 0.1090063748 0.9197611809
6.0927112064 -0.3798093277 0.8583330853
6.0476859055 -0.6180176710 0.6989847520
5.8686833076 -0.6924019864 0.5915513558
6.0550566870 -0.7604736511 0.5420741712
5.9793815124 -0.8230639435 0.4210466230
6.0160256521 -0.9025963990 0.2201304374
6.1677771319 -0.9351940754 0.1549764718
5.8279857156 -0.9044605637 -0.0463769909
6.0657508326 -0.9124728450 -0.2051972298
5.8626366415 -0.7133159243 -0.5649377994
5.8316940907 0.2286898726 -0.8767425897
5.9228984499 0.3646946562 -0.8418346044
5.9832901383 0.4948443471 -0.7814604298
6.0018922168 0.7949658627 -0.4774449048
6.1210712189 0.8965287123 -0.2895144576
5.9207088632 0.8908060801 -0.2183459262
6.0571122422 0.9312035760 -0.0745955537
6.1240017574 0.9393866716 0.0762998120
5.9703711023 0.9130939625 0.1372357292
6.1415370148 0.8786259354 0.3471459249
5.9716193628 0.7965833210 0.4673173737
6.0455200145 0.7173386387 0.5961265139
6.0213816199 0.5652156008 0.7381815066
5.9557226386 0.4408423449 0.8092749617
5.5951310254 0.0285357667 0.8754362611
5.6593550613 -0.2486675510 0.8484289721
5.4968923270 -0.3030998093 0.8083997231
5.7133166325 -0.3883335108 0.8019150564
5.4858761769 -0.4977613834 0.7037275883
5.7170272834 -0.5681089216 0.6869994162
5.6823775642 -0.7863768591 0.4104464857
5.6584804420 -0.8813558691 0.0683619152
5.6171099048 -0.8752198106 -0.0784021714
5.5157787808 -0.8233762201 -0.2676071294
5.5558251061 0.1528456768 -0.8573736172
5.5766186711 0.4179727265 -0.7670388268
5.6952938215 0.5407669426 -0.7052396115
5.5409168717 0.6320221958 -0.5964086632
5.5471950247 0.7912063577 -0.3612927761
5.7391758243 0.8803536475 -0.1573363429
5.5397850027 0.8631024946 -0.0994810845
5.7996508047 0.9016255989 -0.0269718893
5.5215958481 0.8301815258 0.2483350296
5.6536103463 0.7222956923 0.5085983531
5.6865145542 0.6319631355 0.6232182066
5.8016682352 0.4038640855 0.8068521151
5.5332980649 0.3325443792 0.8017710732
5.7445272815 0.2695251158 0.8534458474
5.2632568561 0.1207086662 0.8240512833
5.1474413188 -0.0091422526 0.8175929013
5.2240114198 -0.2916061887 0.7746095017
5.1191734897 -0.5772717063 0.5738352601
5.3024048736 -0.6433682426 0.5369110399
5.3266680242 -0.7601909100 0.3599955176
5.4275894497 -0.8231078575 0.2289456767
5.2928742821 -0.8265501022 -0.1301082834
5.1658045226 -0.6521553474 -0.4971555014
5.3199373339 -0.6207787451 -0.5662556679
5.1966278511 -0.5095225266 -0.6477056393
5.3835378298 0.1812111678 -0.8290042379
5.4344113481 0.3265757453 -0.7904458990
5.2740188321 0.3675258494 -0.7489067174
5.2475361214 0.5486437561 -0.6238369486
5.3727221452 0.6555252656 -0.5366332122
5.2746350764 0.8072595282 0.2106998448
5.4382014472 0.7481777902 0.4154569201
5.2971064585 0.4492527049 0.7065309541
5.1881504941 0.3227142913 0.7570652644
5.3912078397 0.2523455408 0.8112793477
4.9175776756 0.1018850177 0.7802518714
4.9241631752 -0.1138257557 0.7794775550
4.9020499760 -0.4315435881 0.6554685307
5.0241896103 -0.7233018292 0.3445660586
4.9382554358 -0.7631936836 0.2027259464
5.0594732903 -0.8031125081 0.0675702788
5.0834934982 -0.7960028199 -0.1454612980
5.0050920994 -0.6811308798 -0.4170159353
4.8444678500 -0.5892128415 -0.5065837484
4.8186530382 -0.4797030877 -0.6069120683
4.9563022550 0.1633495291 -0.7750420781
4.8717968697 0.2989926005 -0.7212013354
4.7665227630 0.5168841931 -0.5660977736
5.0662282554 0.6849597226 -0.4264018777
4.9216469803 0.7027771932 -0.3551355092
5.0619643363 0.5126820742 0.6222809203
4.9512837000 0.3903152568 0.6884685106
4.7892100617 0.2474145446 0.7287751112
4.5893389955 0.1058958478 0.7346141799
4.7604022946 -0.1039715261 0.7586815525
4.6087926876 -0.2478096210 0.7024446126
4.7301075750 -0.4457571671 0.6174742725
4.7185936914 -0.5978668376 0.4691832703
4.4976487762 -0.6990834896 0.2087185786
4.5281735332 -0.7337866605 0.0000747066
4.7002912459 -0.7528697265 -0.0833951519
4.5142447832 -0.7178471796 -0.1425776173
4.5178084627 -0.5694284630 -0.4605805207
4.5545605121 0.1973608058 -0.7105233092
4.6693832120 0.3421984634 -0.6709849734
4.5107596918 0.3950394750 -0.6155507921
4.7217989244 0.6177012974 -0.4435083283
4.5038714702 0.6324548814 0.3654457292
4.5859414247 0.5638150653 0.4819685476
4.5198389350 0.4019451664 0.6125505247
4.2410058651 0.1928833812 0.6663581492
4.2290490125 -0.0137808422 0.6918765406
4.2539717201 -0.1566326021 0.6776715942
4.1396602863 -0.2796287392 0.6192225584
4.3158202646 -0.3585247310 0.6061497223
4.1371511675 -0.4002930392 0.5485431071
4.2920543457 -0.5192781819 0.4707933672
4.1034927457 -0.5815403816 0.3413568054
4.1518192723 -0.5205998931 -0.4392575853
4.3780575880 -0.4949488007 -0.5132184287
4.2061396569 -0.4267063017 -0.5407149687
4.1483566385 0.3496589719 -0.5839637265
4.0825916644 0.4504937832 -0.4978014859
4.2228308631 0.5209822049 -0.4541780148
4.3505868943 0.6944404635 -0.1435866847
4.1737163932 0.6719878979 0.1287769728
4.3243182489 0.6731729652 0.2108889385
4.3652182473 0.5396710571 0.4632039559
4.1384625864 0.3067520720 0.6060474846
3.9563008288 -0.1980913039 0.6224961146
3.7193817949 -0.4666889762 0.4068133946
3.7804138055 -0.5525883976 0.2981877809
3.9748372224 -0.6477323884 0.1032116111
4.0102007325 -0.6526126489 -0.1051445159
3.9347392004 -0.5734996528 -0.3062254396
3.7820896730 -0.4728301740 -0.4134950438
3.9143601445 0.1813809186 -0.6212632513
3.8992634006 0.3680793108 -0.5296785561
3.8347734328 0.6337842172 -0.0497481812
3.9645717926 0.6474814315 0.0950772859
3.9679928180 0.5806821721 0.3028907251
3.8214009396 0.3900423028 0.4995591452
3.9534424917 0.3367130607 0.5593158704
3.6425911609 0.1196953097 0.5958788603
3.5630573156 -0.0904047159 0.5891662464
3.4314341842 -0.5156320756 0.2581700834
3.6308942140 -0.5710864993 0.2029479583
3.5917756427 -0.5947512280 -0.0815927709
3.5244787180 -0.5201001568 -0.2793444623
3.4238656829 -0.4299923123 -0.3825915264
3.6020719171 0.0633850933 -0.5984587856
3.4141755044 0.1269038012 -0.5599386283
3.7136744688 0.2066853033 -0.5826862703
3.6976513889 0.5702216556 -0.2328411476
3.4891205822 0.5627382515 -0.1605312577
3.5654378024 0.5961509154 -0.0174382678
3.6863711657 0.5541143354 0.2650509034
3.4867756483 0.4061121257 0.4208045896
3.3722885136 0.2882812764 0.4893328139
3.1926598189 -0.2579212222 0.4754335546
3.1056472079 -0.4080936452 0.3346878010
3.1187065695 -0.5075141584 0.1518564409
3.1789288686 -0.5236163392 -0.1271081641
3.0395874244 -0.3233898362 -0.4044453816
3.2128380870 0.0818037726 -0.5377461491
3.0583950113 0.1445463733 -0.5001943512
3.2298541949 0.2215863275 -0.4995753570
3.3394933612 0.4573943657 -0.3283058342
3.3306093773 0.4343319006 0.3561505143
3.2286160590 0.1929348029 0.5111144676
2.7088084323 -0.0246639635 0.4663301689
2.8925686610 -0.2378465089 0.4344185356
2.7585469423 -0.3375514695 0.3337000117
2.9503672940 -0.4077191890 0.2965905326
2.7764157733 -0.4119795056 -0.2412202811
2.8416420550 0.0461913734 -0.4852459881
2.9045434918 0.2525741402 -0.4281732295
2.6899151489 0.2911806821 -0.3613577673
2.8572048113 0.4035393495 -0.2776558437
2.9411757329 0.4793268211 -0.1516728135
2.9877709853 0.4918712439 0.1345800101
2.8600998795 0.4156171458 0.2600426801
2.5313713395 0.0539646493 0.4358954400
2.3561512056 -0.0186617265 0.4112455532
2.4595578035 -0.1555745851 0.3986444099
2.5432161405 -0.3341062463 0.2879702056
2.3240220422 -0.3475370137 0.2110711125
2.6586184533 -0.4498471832 0.0922789694
2.5311641740 -0.4357332762 -0.0548731972
2.3350248115 -0.3921557843 -0.1138221035
2.5730562364 0.0309858622 -0.4447044342
2.4473643840 0.1623357631 -0.3938591405
2.4093132866 0.2760327454 -0.3165769619
2.4752561930 0.4233319743 -0.0775955270
2.3542775588 0.3925962053 0.1228405299
2.4225882741 0.2952553344 0.3016636940
2.5544721574 0.1928496674 0.3986607442
2.0239332670 0.0305238597 0.3571609430
2.2267625726 -0.1127197364 0.3744197016
2.2885132755 -0.2472046618 0.3156468819
2.1042584635 -0.3208511832 0.1869551764
2.0054473078 -0.3550811829 -0.0173828355
2.1485791847 -0.2632606490 -0.2718918825
2.0633241523 0.1715460704 -0.3219293458
2.1870580026 0.2463920451 -0.2953581785
1.7612283059 -0.0178573436 0.3150963118
1.9523092639 -0.0919687142 0.3344896382
1.7168296823 -0.2043171495 0.2309368880
1.7614804103 -0.3104449068 0.0570421447
1.7535733169 -0.2776221293 -0.1474655431
1.8675128525 0.1619992373 -0.2909604072
1.8050627547 0.2646984345 -0.1847305584
1.6514190413 0.2615007365 0.1421118441
1.7958134814 0.1879547118 0.2605576559
1.4047909107 0.0361231310 0.2539608345
1.5950189067 -0.0415439862 0.2852644778
1.5523955808 -0.1848352424 0.2118627362
1.5059596302 -0.2615541393 0.0796387826
1.4460746546 -0.2541248539 -0.0693602105
1.5500676755 0.0678795807 -0.2724531484
1.5739184687 0.2027171711 -0.1999888592
1.5364639479 0.1651449291 0.2242514512
1.2120171485 0.0032440437 0.2240477417
1.2440935461 -0.2050910383 0.1030260607
1.1614030260 -0.2071150731 -0.0593864413
1.1256470657 0.1018578423 -0.1829509466
1.1860272081 0.2088832100 -0.0679153325
1.0487438580 0.0742634883 0.1817376133
0.6566748005 -0.0035130528 0.1285961586
0.8507622794 -0.0730906394 0.1448395255
0.8144285992 -0.1525793831 0.0322308076
0.6601933978 -0.1257962636 -0.0296633658
0.9379317586 0.0434980647 -0.1719098607
0.9285805349 0.1607257944 -0.0709875386
0.4989270480 -0.0587843650 0.0819842595
0.1494235588 0.0247933033 0.0298885505
2.5023924755 -0.2557318871 -0.3514813187
7.0343956838 -0.6176366321 -0.8502326959
5.8585005138 -0.5267676791 -0.7413189706
3.3174829036 -0.2987954655 -0.4732972245
6.4615899265 -0.5200635136 -0.8348529450
2.8620311220 -0.2782292572 -0.4040485837
4.4153880671 -0.3340810287 -0.6358325286
7.0604249326 -0.4884248552 -0.9338109673
5.4043084213 -0.4329961112 -0.7329637065
3.5846089354 -0.2475135953 -0.5457344152
2.0921428838 -0.1379216026 -0.3426946546
5.6459972011 -0.3273552278 -0.8194270267
4.5889252154 -0.2527726323 -0.6977801522
5.9421315536 -0.3123085384 -0.8652224021
6.5070841995 -0.3895248268 -0.9091783867
5.2215186340 -0.3207063867 -0.7626547194
1.1676444751 -0.0637179442 -0.2069438417
6.6192334842 -0.2767792674 -0.9634432846
6.8866355754 -0.3314953647 -0.9793157107
2.6638791935 -0.1141578812 -0.4456588984
7.0462729651 -0.2352266365 -1.0255717155
0.7559629249 -0.0253344283 -0.1436079033
6.4877316814 -0.1784176120 -0.9704774467
5.5922129100 -0.1339592996 -0.8652176574
5.7856169252 -0.1808778933 -0.8818742742
2.2510768822 -0.0814588474 -0.3864251014
6.2258296371 -0.1257854041 -0.9466658866
4.9138517449 -0.1114025261 -0.7784392391
3.3197513194 -0.0771940787 -0.5546927935
3.9177819126 -0.0271888549 -0.6471268300
5.2545142584 -0.0440411459 -0.8305050872
1.7606478014 -0.0099440338 -0.3153511155
6.6453863611 -0.0771352971 -1.0025068897
4.5802077660 0.0097125286 -0.7408745961
5.0629638880 0.0351628724 -0.8056322856
7.2544020894 -0.0119097729 -1.0759720297
3.0600609442 -0.0053550379 -0.5208874010
7.3901968981 -1.0889173177 -0.0724007135
7.4474649182 0.4572367951 0.9782320679
7.4554921041 1.0146692847 0.3548590949
7.4589103876 1.0722366383 -0.0270060455
7.4800729671 -0.8225063463 -0.6553619369
7.4849387698 -0.9267723832 -0.4819028393
7.4957251062 -0.6722577625 -0.7680582758
7.4979060458 0.4586111878 -0.9022092263
7.4980745722 -0.2379287722 -0.9829169481
7.4486041204 -0.0838555456 -1.0758729602
7.4974272822 0.0456991450 -1.0132776991
7.4999790495 -0.9926753067 0.0456884074
7.4986640439 -0.3544388186 -0.6137507477
7.4974439574 -0.6073111291 -0.3531776351
7.4630535502 0.3750513843 0.5276423436
7.4330249830 0.0572137774 0.6279952541
7.4247217009 -0.6154985901 0.1251184087
7.4125808169 0.5667049278 0.2654355040
7.4040270215 -0.2733934731 0.5620955452
6.0292489449 0.4795519615 -0.3533215719
6.0396079322 0.0991091914 -0.5964849937
6.0506266221 -0.5638071978 -0.2378517371
6.0000000000 0.1817158567 -0.4012057501
6.0000000000 0.1757733258 -0.1767966112
6.0000000000 0.1761206752 0.0030971757
6.0000000000 0.3108225281 -0.3520765983
6.0000000000 0.3497831646 -0.0828281376
6.0000000000 0.2851616861 0.1967317841
6.0000000000 0.3329097852 0.3399218770
6.0000000000 0.1547944080 0.4638976104
6.0000000000 -0.0157449053 0.5194252245
6.0000000000 -0.1748631382 0.4364508494
6.0000000000 -0.1534747304 -0.2765069639
6.0000000000 -0.2706520507 0.0943154788
6.0000000000 -0.4532373801 -0.0828884861
6.0000000000 -0.3471176524 -0.2951761128
6.0000000000 -0.1798892226 -0.4398335937
6.0000000000 -0.0039019434 -0.3549946392
7.1658744406 -0.0891067219 0.6184831859
6.8256192094 -0.2167449766 0.5857554400
6.3476426478 -0.2281391752 0.5817706919
7.3013427174 -0.3844572319 0.4926249120
6.2686855280 -0.5232630170 0.3417114931
7.2153069985 -0.5564868889 0.2840376377
7.3884989915 -0.5624144884 0.2725043245
6.5370264516 -0.6175606803 0.0931431827
7.2431124745 -0.6247786206 -0.0075962814
6.8271233074 -0.6047834220 -0.1565327127
6.1880343292 -0.6099060091 -0.1354855129
7.2855166089 -0.5383017249 -0.3170725882
6.4237825478 -0.5486265404 -0.2993244574
6.8780303564 -0.4701806818 -0.4114815915
6.2922172027 -0.4667528288 -0.4156466657
7.3850455179 -0.4244215717 -0.4585745977
7.2345285395 -0.3242137872 -0.5342922019
6.7226924888 -0.2417932563 -0.5760320385
7.2962775173 0.0564811902 -0.6223954735
7.1671898729 0.4345817620 -0.4491322049
6.8785219258 0.4562569983 -0.4265712173
7.0865140245 0.6093514144 -0.1370566346
7.2852316797 0.6217194756 -0.0629571601
6.6029808235 0.5271825384 0.3353913855
6.9248132731 0.4932257451 0.3835377974
6.4395183160 0.4866265863 0.3915397514
7.0713575628 0.4102982632 0.4709100153
7.0118095127 0.2598867585 0.5679208573
7.3069244462 0.2035664455 0.5907279542
7.2087881022 0.0780071088 0.6196959218
7.0571583334 0.0232908102 0.6241072520
6.2191184210 -0.0662774705 -0.6213240945
6.7005756232 -0.0994032862 -0.6169000371
6.9291168603 -0.1416107510 -0.6087143720
6.2219798716 -0.6217621022 0.0620356081
6.3166819559 -0.4110245180 0.4704545090
6.2086557852 -0.3229204353 0.5350399426
6.1211118959 0.1384292646 0.6094100803
6.1799062916 0.2996081625 0.5482422681
6.1810256488 0.6155168220 0.1077219452
6.2686428402 0.5446808659 -0.3063237667
6.1447261879 0.2421102791 -0.5760046371
6.9863738614 -0.2482583059 0.5731338053
6.5357145948 -0.2698270056 0.5634647191
6.6784195921 -0.3414491476 0.5229434907
7.0340662986 -0.5788105499 0.2345884599
6.4373844711 -0.5759896379 0.2415876050
6.7455254229 -0.6233887173 0.0389529691
6.5908167296 -0.6213302584 -0.0657644756
6.9398436408 -0.6243085913 -0.0269715758
7.0357474715 -0.5924194909 -0.1979671856
6.8473511764 -0.5569088972 -0.2827432909
6.7175519156 -0.3889024650 -0.4888498569
7.0030250455 -0.2920965528 -0.5520709051
6.5418360573 -0.1824305180 -0.5975613972
7.3491560488 -0.1822320011 -0.5976660238
6.5019509990 0.0079443705 -0.6246954884
6.6700104645 0.1178482435 -0.6133228442
6.5485847867 0.2722148176 -0.5623942809
6.9473101808 0.3392872620 -0.5243435151
6.3480653273 0.4724161316 -0.4089359041
6.5862686573 0.5742965930 -0.2457883269
6.9362554598 0.6040241006 -0.1597775531
6.6110740825 0.6232828572 -0.0403318007
6.6943432326 0.6159416901 0.1036248385
6.8006582075 0.5628572662 0.2707295632
6.5764194629 0.3951556717 0.4840832480
6.3544350874 0.2901816215 0.5531915341
6.5813565633 0.1997455537 0.5918609073
7.5000004768 -0.0284137295 0.7767689931
7.5000004768 -0.2047627595 0.8460508636
7.5000004768 -0.4433455363 0.8548093500
7.5000004768 -0.5996156197 0.7505606812
7.5000004768 -0.8399660781 -0.0899243836
7.5000004768 -0.4917785617 -0.7825439629
7.5000004768 -0.0626867518 -0.8692514648
7.5000004768 0.1386383467 -0.8693034375
7.5000004768 0.5303101551 -0.7154212034
7.5000004768 0.6898559907 -0.7047621826
7.5000004768 0.8948723946 -0.3103554510
7.5000004768 0.7171376959 -0.1551185014
7.5000004768 0.8985061182 -0.1091247615
7.5000004768 0.9778813210 0.1099965704
7.5000004768 0.8777921002 0.4080679222
7.5000004768 0.2140613453 0.7235141359
7.5000004768 0.5992354189 -0.4832366190
7.3609820125 0.3279628148 1.0373646753
7.3341919012 0.8059189444 0.7265015809
7.3252077593 0.9118041166 0.5862645471
7.3105595695 1.0545213918 0.2435050244
7.3276666472 1.0826958909 0.0569002526
7.2270687540 1.0350185617 -0.2824834164
7.3525746089 0.8875322054 -0.6276399859
7.3682738962 0.1096179833 -1.0832189665
7.3595233042 -0.2557477317 -1.0572822699
7.3315507176 -0.7554174030 -0.7782929875
7.3124013569 -0.9644701877 -0.4914554071
7.2593178205 -1.0039232511 0.3884873194
7.3422046712 -0.5411121163 0.9414451909
7.2898314731 -0.3682432763 1.0152060450
7.3752718070 -0.1938405702 1.0721533553
3.9141802457 0.1950385566 0.6171329901
2.7294957333 0.1409192349 0.4485267967
6.0188105418 0.3269957983 0.8698350118
4.5772833293 0.2719412009 0.6888597481
2.8923145200 0.1306888734 0.4776641981
6.8441847008 0.2787169395 0.9902859562
3.7474898395 0.2460088672 0.5723441341
6.5133127042 0.4172417481 0.8974381907
4.3521683785 0.3061254670 0.6397740403
3.5481455444 0.2802437841 0.5235357493
2.2725793960 0.1924393596 0.3487930842
6.3833264756 0.5297338838 0.8173009081
5.6937593429 0.4899968289 0.7411478039
2.0340508395 0.1947636619 0.3028434124
5.5129340896 0.4906369521 0.7127046611
4.6975567803 0.4444924129 0.6128429120
6.9055226814 0.6135876360 0.8348322214
3.1534094145 0.3330245504 0.4187321937
2.7176198737 0.2976172293 0.3615034626
4.8367076746 0.5272088385 0.5693160722
4.1158774086 0.4433305144 0.5103700738
2.9347675065 0.3351824195 0.3733417538
5.9178113869 0.6524944790 0.6441444199
3.6598848778 0.4312613125 0.4318236915
6.7414610612 0.7542042243 0.6819933119
5.5482517098 0.6241043720 0.6060512805
3.9263080096 0.4734399786 0.4437760619
0.9070888970 0.1251558128 0.1180239656
5.3712340795 0.6603037402 0.5302314896
2.5707150716 0.3532971738 0.2712306657
5.8414597165 0.7306522441 0.5375998033
5.0823875390 0.6572148503 0.4714473040
2.1706128673 0.3070201628 0.2272290259
7.1716331741 0.8945638590 0.5807298696
6.4510079296 0.8219375382 0.5376405972
4.2722847751 0.5983723509 0.3596389428
3.1051096425 0.4518465895 0.2724132147
5.2456896228 0.7216254758 0.4112047402
3.5293234338 0.5115808078 0.2961817217
6.7508107208 0.9149689867 0.4458424937
5.7487706462 0.7979482380 0.4061627701
4.8826768940 0.6950733752 0.3586984583
4.1327409954 0.6046389699 0.3074497838
3.2406477857 0.4863567817 0.2528309683
7.0008035363 0.9535642119 0.4319649889
5.5829229124 0.7912674674 0.3721984227
5.0270240443 0.7315629809 0.3273032574
1.8980889014 0.3066484446 0.1420743146
4.7308852454 0.7073016568 0.2821071678
3.8404007497 0.5898215695 0.2391274010
1.2271682611 0.2095753503 0.0861191942
5.9288776060 0.8740256440 0.2813647038
2.5365224830 0.4221395014 0.1241141083
0.3318220049 -0.0705685955 0.0107357060
0.5116961655 -0.0666362687 -0.0787998462
0.4305904348 0.0867531650 -0.0192621066
0.6259051834 0.0949237173 -0.0785448752
0.7912507212 0.1509168104 -0.0177304291
1.0300060442 -0.1427973207 0.1300668218
1.0166595557 -0.1898299222 -0.0199171998
1.0232913283 -0.1184834313 -0.1511012623
1.2999696050 -0.1950220249 -0.1380322429
1.3148278908 -0.0544491856 -0.2352150493
1.2975822200 0.1081866401 -0.2125560631
1.0879793711 0.1961025421 0.0524527729
1.3816643413 -0.1294974465 0.2169739890
1.6037151634 -0.2879740127 -0.0311869451
1.5376009503 -0.1651659382 -0.2244382222
1.4258239129 0.2207384842 -0.1374548160
1.6091128461 0.2800598768 -0.0773187982
1.3583035087 0.2486679982 -0.0075309717
1.5047811259 0.2637637399 0.0710389539
1.8632224281 -0.2573224374 0.2101940315
1.9576049329 -0.2646481608 -0.2254692479
1.7055996313 -0.1838327130 -0.2452739812
1.9167380705 -0.1372248075 -0.3121790721
1.9597990816 0.3455051539 -0.0418269702
1.7244165152 0.3083224464 0.0278972849
2.0465705515 -0.2037519171 0.2993176430
2.2211336316 -0.3842209466 0.0675628213
2.1571101624 -0.3698961130 -0.0862421862
2.2984768743 -0.2753369938 -0.2936159540
2.0850813132 0.0140517947 -0.3680060318
2.2930593103 0.1033978821 -0.3880379418
2.0989817413 0.3203013250 -0.1861605989
2.2847924340 0.3782271034 -0.1310391184
2.2081174605 0.3862339074 0.0365882915
2.5099389839 -0.4010896045 0.1704104011
2.3799370564 -0.4138712087 0.0354253368
2.5849012866 -0.3575584652 -0.2693005940
2.4239555922 -0.0937925347 -0.4117671685
2.5250474101 0.3706306133 -0.2337266068
2.6114615800 0.4515625671 -0.0130333930
2.8800978034 -0.0460508327 0.4911442284
2.7062151757 -0.1845632244 0.4284968868
2.8157939553 -0.4730608146 0.0994978782
2.7532567161 -0.4710817108 -0.0506123079
2.8986763756 -0.4804199746 -0.1240189330
2.6778598794 -0.2951508682 -0.3555842169
2.9080356250 -0.1066399080 -0.4861376023
2.7288025959 0.1199912713 -0.4543971523
2.7195908809 0.4388223897 -0.1642564588
2.8650414774 0.4906700198 -0.0174778536
2.7644788103 0.4585135225 0.1259507278
3.0824614585 -0.0119061701 0.5240914378
3.2077515249 -0.0909543407 0.5354601616
3.0448049229 -0.1569152871 0.4941969999
3.0402578132 -0.2909479122 0.4283568191
3.3018043604 -0.3837588610 0.4041722769
3.2761390429 -0.4792509427 0.2768232684
3.2490338417 -0.5452878231 0.0668670800
3.0224303535 -0.5151129324 -0.0024314188
3.0192454724 -0.4286261444 -0.2848251457
3.1840302299 -0.3929845197 -0.3696733696
3.1504571692 -0.1344133349 -0.5173517316
3.2043267727 0.3652960838 -0.4013020929
3.0864685783 0.4486369140 -0.2724335574
3.2470932659 0.5080628289 -0.2083347035
3.1606157980 0.5357450724 0.0185828740
3.4026356375 0.1308216332 0.5571312470
3.4180684907 -0.0189082426 0.5743387534
3.3428018772 -0.2311424486 0.5138115017
3.4982990888 -0.3192249464 0.4919945568
3.5114310172 -0.4361019131 0.3949751982
3.6133483593 -0.6011311846 0.0540472043
3.4054602587 -0.5724803166 -0.0186935765
3.3267486354 -0.5074503431 -0.2394758522
3.5822848629 -0.4509685717 -0.3940609454
3.4342884585 -0.1866416559 -0.5459551756
3.5641700619 -0.1105167519 -0.5858875333
3.5385896084 0.2567745239 -0.5339459309
3.3897665612 0.3097955518 -0.4789661182
3.5305431503 0.3818566634 -0.4513881714
3.5126640423 0.4846561691 -0.3339590223
3.3920897239 0.5618637731 0.1000783196
3.7981075001 -0.0073401976 0.6302729671
3.6462858623 -0.2246334651 0.5653031600
3.8083941995 -0.3002128830 0.5559663025
3.8671603471 -0.4396587431 0.4655384329
3.9346715634 -0.5867230431 0.2800253358
3.8113087837 -0.6186845051 0.1303477554
3.8350763912 -0.6294066468 -0.0891678829
3.7309606246 -0.5773783533 -0.2275197868
3.9405097176 -0.4195427455 -0.4977623437
3.7599574176 -0.3409593874 -0.5235707054
3.9459315589 -0.2832342847 -0.5870025457
3.8164090180 -0.2026122918 -0.5996734838
3.7515432372 0.0277921043 -0.6229553188
3.7592611580 0.3766109427 -0.4985015695
3.8365573681 0.4923180484 -0.4024965857
3.9113900756 0.6150618887 -0.1999879807
3.7777691488 0.6191442992 0.1015397587
4.1046089668 0.1043000032 0.6661954038
4.0036765294 0.0150676002 0.6598310113
4.0178498781 -0.4554862467 0.4803902528
4.2504020241 -0.6545505734 0.2340432406
4.1529942858 -0.6811468445 0.0118049216
4.2117167444 -0.6729185638 -0.1504098547
4.0969158221 -0.6134230310 -0.2773730640
4.1399403079 -0.3048596491 -0.6072394048
4.1940403851 -0.0044452060 -0.6870870378
4.0750113994 0.1451192485 -0.6542065601
4.2435966792 0.2221782137 -0.6576033539
3.9847999676 0.5509462816 -0.3585064980
4.2645466237 0.6258182776 -0.3070042772
4.1105720296 0.6378628854 -0.2214720946
4.0637880062 0.6654733540 -0.0647178624
4.3789702678 0.0672350352 0.7099269884
4.5714827991 -0.1007771604 0.7328231410
4.4013253616 -0.1635165081 0.6972221850
4.5007612523 -0.3779864674 0.6243953924
4.4145384005 -0.4884623314 0.5261300079
4.5241331925 -0.6078859415 0.4100198594
4.3351118882 -0.6189453889 0.3416705656
4.3142272531 -0.7039352944 -0.0068276986
4.3853382601 -0.6716386369 -0.2418609478
4.5209450647 -0.6597235932 -0.3189285102
4.3069252506 -0.5999454964 -0.3663465029
4.2903619229 -0.1817899755 -0.6767632195
4.5042422722 -0.1165383790 -0.7210244323
4.3663861220 0.0957697134 -0.7047395529
4.3986298313 0.2534796831 -0.6694584532
4.3700060279 0.4539856808 -0.5483159293
4.4840891588 0.5662042979 -0.4570282996
4.5140733644 0.7097608396 -0.1780840805
4.3511729390 0.7080333129 0.0390197495
4.4874162490 0.7163071105 0.1301937522
4.7102801128 0.0520807700 0.7568991276
4.8048706855 -0.3294082241 0.6978201206
4.7597131589 -0.7239860474 0.2484762713
4.6584156893 -0.7444435390 0.1044130360
4.8679392668 -0.7664315239 -0.1458018315
4.7349635997 -0.7174561862 -0.2568344246
4.8547841599 -0.7008734997 -0.3386631911
4.6925451778 -0.6468215357 -0.3918833023
4.6527309762 -0.4981195796 -0.5618822077
4.6909682054 -0.3785232550 -0.6544834279
4.9100445051 -0.3154112636 -0.7197988495
4.7392710261 -0.1751554376 -0.7422523478
4.7901254528 -0.0124168847 -0.7695259684
4.6948302323 0.1355169676 -0.7443557563
4.8785382764 0.4291910106 -0.6531872633
4.8991977639 0.6080702892 -0.4955050116
4.6145741024 0.6860951567 -0.2920657027
4.8058141353 0.7408933291 -0.2157736855
4.6446478896 0.7465697502 -0.0706723689
4.8763431711 0.7813061310 -0.0012767128
4.7566005871 0.7615120193 0.0727756050
4.8665337439 0.7613047057 0.1694016661
5.0795351044 0.1893558493 0.7859317447
5.0906541138 -0.1779747924 0.7901108545
5.0446168162 -0.3346494752 0.7308180766
5.2517458041 -0.5382860416 0.6335348127
4.9752238142 -0.6072892037 0.5124069080
5.1496586039 -0.6887932586 0.4407507652
5.1932130471 -0.7913596331 0.2279211325
5.1820220874 -0.8220138225 0.0137706290
5.1475055953 -0.7623609897 -0.2951934017
5.0514596825 -0.5915529395 -0.5455645931
5.0222057218 -0.4330758504 -0.6735957191
5.0719164299 -0.1321391691 -0.7965535761
5.0944262739 0.2357530328 -0.7753563572
5.0300521005 0.4401951076 -0.6702365530
5.1136491433 0.5619899929 -0.5874671770
5.2081194251 0.6673425900 -0.4861853434
5.1795434133 0.7590104209 -0.3149315059
5.0125021670 0.7769254625 -0.1886921888
5.1755978833 0.8127731564 -0.1176422949
5.1767998789 0.8203375541 0.0407148206
5.0223624822 0.7929752111 0.1119429748
5.5222534825 0.1624570532 0.8511093467
5.4095829801 0.0261828775 0.8514112398
5.4739041499 -0.1302220155 0.8503945247
5.3179403498 -0.4218242136 0.7264998956
5.5326266072 -0.6194921469 0.6076962894
5.4721571885 -0.7467063477 0.4265904786
5.3815476206 -0.8451369220 0.0725122737
5.4796835278 -0.8556554563 -0.0965611334
5.3252177514 -0.7855641511 -0.3002174594
5.3256500539 -0.7137923571 -0.4446389340
5.5439693766 -0.5277355258 -0.6907386987
5.3966755883 -0.2611839302 -0.8090544264
5.4339761788 -0.1013065908 -0.8489676492
5.4222174568 0.5404413748 -0.6606497489
5.3928661753 0.7641126715 -0.3715750227
5.3464142993 0.8271224463 -0.1659725372
5.4608137662 0.8547843052 0.0794306810
5.7637537717 0.0893452712 0.8928883498
5.8831678683 -0.0211863009 0.9122366355
5.7280729216 -0.0768679892 0.8894308470
5.8348801212 -0.2397152758 0.8740433992
5.8629904588 -0.4384278792 0.7972463102
5.8309781975 -0.8378379494 0.3444075826
5.5893498076 -0.8319461711 0.2715565262
5.7991805147 -0.8817944987 0.1890968373
5.8774105584 -0.8874705547 -0.2091007620
5.6622542144 -0.8487955208 -0.2486606791
5.8139318566 -0.8321706363 -0.3525756141
5.5944156818 -0.7862174850 -0.3858706656
5.5894969332 -0.7027718173 -0.5215900776
5.7155939520 -0.5570023232 -0.6958015683
5.7865726718 -0.3520227713 -0.8284624907
5.8548353970 -0.0604418011 -0.9068132238
5.7743336378 0.0657325255 -0.8963576213
5.7066004068 0.3047573166 -0.8362379874
5.7523514981 0.4405152477 -0.7800459339
5.8696235601 0.6418000587 -0.6462071896
5.7079886007 0.6779130389 -0.5770410756
5.8053647306 0.7786250991 -0.4564139029
5.7192477988 0.8325985640 -0.3189937722
5.6160106079 0.8774085305 0.0440615356
5.8095263023 0.8930370967 0.1349597463
5.6826164607 0.8662035363 0.1907711949
6.0168545795 -0.1005372337 0.9236844457
6.2037199284 -0.7012127643 0.6441913062
6.2216395903 -0.7943943228 0.5292474490
6.2071822543 -0.8803469783 0.3640518894
6.0369299342 -0.9315727094 0.0018791648
5.9771321809 -0.8472366932 -0.3691725540
6.1400320828 -0.7929235758 -0.5129449107
6.0189188950 -0.6823676518 -0.6308602584
6.0955638802 -0.5338836247 -0.7721913672
6.1345999322 -0.3215497358 -0.8872301226
6.0041944304 -0.1727055445 -0.9112758501
6.1416049884 0.0615141609 -0.9425566112
6.0057280882 0.2016727781 -0.9054608630
6.0933762302 0.3568986893 -0.8680211727
6.0950713483 0.5677167637 -0.7477985213
6.0489465867 0.7142863370 -0.6002577117
6.2059495805 0.8175420308 -0.4887512643
6.1903714304 0.9426066797 -0.1232315015
6.2289901056 0.9353837610 0.1943240923
6.5209925741 0.2436626598 0.9601908571
6.4136381990 -0.2895650133 0.9337354830
6.4155858278 -0.4268521740 0.8798431969
6.3686646724 -0.6658683343 0.7083323093
6.3773881508 -0.7849751010 0.5755987652
6.5192192586 -0.8248852590 0.5483472213
6.3592704290 -0.9190981601 0.3134101192
6.4896151049 -0.9868313349 0.0139293322
6.5239415326 -0.9649575440 -0.2257604940
6.3471177772 -0.9313344534 -0.2700886716
6.3075364466 -0.8424812798 -0.4701551379
6.4659922247 -0.8076458904 -0.5623109410
6.3253962729 -0.5280273574 -0.8100859061
6.3678832093 -0.3224859988 -0.9171786888
6.5294065315 0.0424936363 -0.9907118133
6.2319973317 0.4472581917 -0.8447344439
6.2720536314 0.6070555369 -0.7444424018
6.4702626046 0.6828264823 -0.7092446229
6.3910218701 0.7659879249 -0.6032132607
6.2712932618 0.8967915348 -0.3437464063
6.3669950227 0.9570351954 -0.1708502489
6.4571622467 0.9820006959 0.0419557589
6.8072904137 -0.1290528066 1.0162702811
6.5803072842 -0.3219538696 0.9443672510
6.6238610243 -0.7221887854 0.6957890940
6.8666415885 -0.7944021583 0.6577975336
6.6760012082 -0.8191606089 0.5891638839
6.8762001080 -0.8835702280 0.5344995749
6.7272252381 -0.9026759687 0.4641904811
6.7418801570 -0.9652468987 0.3193349909
6.8804209715 -1.0200922624 0.1629170881
6.6230691347 -0.9953899700 0.1210878332
6.7463110204 -0.9957011943 -0.2083843023
6.6402135803 -0.8802748362 -0.4843487401
6.8697428793 -0.8142793275 -0.6337024520
6.8491474555 -0.5227934944 -0.8867021223
6.6689801003 -0.4520399083 -0.9013087728
6.7625050507 0.0713483290 -1.0168078747
6.8456986299 0.2286531324 -1.0032278811
6.7960919712 0.4316710185 -0.9276407309
6.6149294387 0.5720079971 -0.8225955770
6.7746817690 0.6330937619 -0.8004638411
6.7856984834 0.7530435034 -0.6907894711
6.6606114663 0.9817368017 -0.2250792952
6.7357875460 1.0133178830 -0.0735045831
6.5706112137 0.9771190540 0.1965341117
7.0764253037 0.2376393006 1.0284861122
6.9569888787 0.0933610074 1.0377696273
6.9490773539 -0.0670764530 1.0388317283
7.1968021528 -0.2317113088 1.0439293143
7.0687544313 -0.4354389058 0.9605524858
7.1982467567 -0.5095434253 0.9403694789
6.9537286317 -0.5465730351 0.8864982970
7.0459785003 -0.7828482464 0.7027883076
7.1140087660 -0.8950417631 0.5675906240
7.0035003683 -1.0451290456 0.0658339087
7.1904753356 -1.0643040348 -0.0958534633
7.1810927269 -1.0166597197 -0.3258230624
7.0557915921 -0.8312548570 -0.6467257271
7.1985797540 -0.7952887761 -0.7154609902
7.0398214903 -0.7361439377 -0.7505738675
7.2089413154 -0.6024899587 -0.8852364825
7.1817942035 -0.3547883032 -1.0071167627
6.8859973364 -0.1352778185 -1.0249261588
7.0646547786 -0.0330057757 -1.0536509000
7.2012733662 0.3752312910 -1.0020645929
7.1666196467 0.5554423260 -0.9097050201
6.9341503165 0.6567505734 -0.8054635037
7.0194203990 0.8227950650 -0.6509287682
6.9532734095 0.9022231786 -0.5200948523
7.1646950794 1.0625120910 -0.0818200408
6.9204879523 1.0373899347 -0.0237064029
7.0303436754 1.0153743888 0.2683247185
7.0950755607 0.5289826413 0.9158796819
7.2726746049 0.6665004119 -0.8472267681
7.2479361665 0.1890246762 -1.0584048542
7.3359353649 -0.4291067969 -0.9966895706
7.4341417219 -0.0137945241 1.0854516520
7.4863389839 -0.2627810371 1.0083062140
7.4748839407 0.1608844294 1.0455685708
7.4907610245 0.6506049171 0.8028754468
7.4006709028 1.0745861929 -0.1916648044
7.4377518324 1.0013786784 -0.4153988683
7.4207453240 0.7953170582 -0.7446108236
7.3995474730 0.4148243947 -1.0096115764
7.4632224313 0.6338493852 -0.8608804148
7.4407743911 0.2454163911 -1.0546308418
7.3961706330 -0.6073190565 -0.9069884114
7.4627700701 -1.0399194848 -0.2494285643
7.4421641990 -1.0623868728 0.2062541084
7.4202152050 -0.9098698983 0.5995527161
7.4817083329 -0.9913643914 0.3437692337
7.4424785739 -0.4283206069 0.9938065724
7.4997547358 0.7332352853 0.6768972972
7.4897397099 -0.1557382467 0.6627184186
7.4712695869 -0.4215763371 0.5009858827
7.4171920119 -0.6259278460 -0.0241280213
7.4988143475 -0.5906202738 0.3931768827
7.4742960231 -0.6316081701 -0.1843653363
7.4696910447 -0.0147908615 -0.6529719309
7.4518015379 0.2500845197 -0.5884987205
7.4901350625 0.4413817776 -0.5196006538
7.4474407763 0.6358218338 0.0375607285
7.4967602238 0.5248889563 0.4628161791
6.0511634808 -0.0723148857 -0.6077609669
6.0502164021 -0.2352510812 -0.5644203211
6.0537995409 -0.3907225541 -0.4729111207
6.0551885560 -0.6134631110 -0.0309081031
6.0551519949 -0.6039135833 0.1122757463
6.0602498082 -0.5381742584 0.3010083454
6.0586781527 -0.4464311441 0.4241170322
6.0572028381 -0.3104922615 0.5310549439
6.0601618652 -0.1502746667 0.5980684817
6.0604050918 0.3514645172 0.5065704729
6.0594072363 0.4693112678 0.3991676175
6.0608860299 0.5655417651 0.2462263239
6.0550527223 0.6134536081 -0.0301297213
6.0579743141 0.5748180138 -0.2203700466
6.0575990875 0.3646237869 -0.4955799641
