5.2163122915 -0.4284482912 -0.7780932559
5.2566932022 -0.4415770878 -0.7766542776
5.3885417099 -0.4373453347 -0.7981405300
5.4149202107 -0.4406866497 -0.8001109218
5.1971829622 -0.4362762101 -0.7709652907
5.3427634989 -0.4379928983 -0.7911372691
5.7063791790 -0.4526657469 -0.8347865962
5.4704315035 -0.4463939853 -0.8048871233
5.6119004181 -0.4491945954 -0.8233477739
5.5758539558 -0.4454108858 -0.8203508064
5.6370536611 -0.4500285219 -0.8264433004
5.6869811590 -0.4530673744 -0.8318185187
5.5964272829 -0.4498765061 -0.8207792384
5.4424313685 -0.4393698339 -0.8048302255
5.5202961561 -0.4479573084 -0.8110737707
5.6840270312 -0.4667477326 -0.8237948586
5.5922417069 -0.4628059606 -0.8129988109
5.6659326573 -0.4628048717 -0.8234265845
5.7985913716 -0.4705658163 -0.8378223581
6.0410154013 -0.4748963125 -0.8688407127
5.8093963423 -0.4596388937 -0.8453870513
5.8284270289 -0.4688518977 -0.8428890215
6.0148999759 -0.4766708817 -0.8642532835
5.9603913862 -0.4770360136 -0.8565345313
6.0787462578 -0.4782526330 -0.8721771551
6.1995631608 -0.4809272289 -0.8870707991
6.3497616189 -0.4916260916 -0.9012896016
6.2302493343 -0.4845947883 -0.8891519801
6.2142770790 -0.4851844422 -0.8866795910
6.3773217315 -0.4924513640 -0.9045312367
6.1717287569 -0.4794656290 -0.8841461050
6.3762148991 -0.5063480107 -0.8966566928
6.3021870755 -0.5010109472 -0.8896842784
6.2366356759 -0.4986740518 -0.8821820153
6.4324037422 -0.4991097317 -0.9082252446
6.2208436893 -0.4971009070 -0.8809362524
6.3581786883 -0.5048422092 -0.8950721617
6.3243548115 -0.4955239855 -0.8957112167
6.6474032224 -0.5075709885 -0.9317249964
6.5607829408 -0.5022988266 -0.9233384725
6.6715203591 -0.5071874251 -0.9350893338
6.6603332832 -0.5154697957 -0.9290230152
6.7461634142 -0.5255901738 -0.9346109091
6.7170823362 -0.5270553413 -0.9299966697
6.8459481603 -0.5279267446 -0.9462834896
6.8091883357 -0.5179590443 -0.9470800187
6.8330314152 -0.5318599493 -0.9424256350
0.1857814040 -0.0558098607 -0.1039318667
0.3207853752 -0.0711883466 -0.1314625306
0.8950146168 -0.1181807493 -0.2211465627
0.8162834060 -0.1119986549 -0.2094187690
1.2529397266 -0.1431998942 -0.2751849232
1.1769604404 -0.1368174370 -0.2643753137
1.3081747557 -0.1496557592 -0.2820848951
1.4491715191 -0.1586175959 -0.3033591971
1.3717731610 -0.1532346446 -0.2920409412
1.7308549509 -0.1800152986 -0.3434966329
2.0930795525 -0.2094754584 -0.3927241896
2.2337064926 -0.2168069775 -0.4135685789
2.1942989389 -0.2187566228 -0.4056142768
2.4958501121 -0.2329114808 -0.4507222945
2.4258600313 -0.2318990832 -0.4392090159
2.4003239947 -0.2283736653 -0.4366739280
2.5075341079 -0.2419062646 -0.4479866299
2.7188668507 -0.2486370610 -0.4808117396
2.7619737426 -0.2550507937 -0.4846967254
2.8696306884 -0.2667533485 -0.4966645522
3.0337761968 -0.2796343181 -0.5175306191
3.0113304123 -0.2762528177 -0.5155323147
3.1399419033 -0.2764648386 -0.5368065027
3.1880725435 -0.2840496044 -0.5407421757
3.1604347906 -0.2888774144 -0.5336359615
3.2444131653 -0.2898024129 -0.5469987447
3.3345852479 -0.2929301886 -0.5602206072
3.3941582758 -0.2999991429 -0.5663157404
3.5493625906 -0.3087204046 -0.5867725737
3.4233445080 -0.3007688909 -0.5706369914
3.4961233256 -0.3015121992 -0.5819869140
3.4683044649 -0.3057292868 -0.5752731033
3.5983308896 -0.3162820532 -0.5906826229
3.7697151662 -0.3241351445 -0.6140801327
3.8405958158 -0.3272953922 -0.6235936883
3.7926608175 -0.3292867705 -0.6149810907
3.7487065640 -0.3192617613 -0.6133379034
3.9044284310 -0.3380846556 -0.6279693577
4.0539777949 -0.3365059431 -0.6523936836
3.8693484465 -0.3353808602 -0.6238624152
4.0133338082 -0.3450799139 -0.6414574142
4.0830103823 -0.3452752380 -0.6523323905
4.1348277753 -0.3456453106 -0.6601253024
4.1613654962 -0.3516466699 -0.6610492820
4.2876081126 -0.3534670983 -0.6795502490
4.3393236583 -0.3549924769 -0.6867177705
4.2549945647 -0.3611153957 -0.6704862512
4.4155121532 -0.3672685855 -0.6919845324
4.3199754242 -0.3569421088 -0.6827061491
4.5927531005 -0.3700174175 -0.7172363935
4.4673983056 -0.3731252076 -0.6967209801
4.6722782469 -0.3793168781 -0.7243032620
4.5780687451 -0.3833863864 -0.7079700444
4.6315748457 -0.3818232489 -0.7168516503
4.6498804423 -0.3849836631 -0.7179401674
4.7505723137 -0.3868287568 -0.7321281460
4.7740123909 -0.3857300971 -0.7361868095
5.0775331044 -0.4060556911 -0.7700757464
4.8129177113 -0.3964348922 -0.7362563566
4.9023580403 -0.3971164247 -0.7490437840
5.0414080033 -0.4052652873 -0.7651827336
5.0219979400 -0.4104793246 -0.7595779829
4.9433440040 -0.4036311862 -0.7516303879
4.9923563944 -0.4045330883 -0.7583588996
5.2608240001 -0.4105987743 -0.7940464202
5.3057930101 -0.4171384988 -0.7970443469
5.1898970293 -0.4092101357 -0.7846073957
5.1421695900 -0.4186550889 -0.7727782590
5.3992217801 -0.4307892413 -0.8032393022
5.4069779739 -0.4201011490 -0.8099921040
5.5022220153 -0.4286548967 -0.8189182960
5.6380451055 -0.4313787432 -0.8364738178
5.6909438301 -0.4355441627 -0.8416727444
5.6760498598 -0.4387116731 -0.8379184270
5.7561475598 -0.4414313469 -0.8476837228
5.6552720571 -0.4461337189 -0.8310960750
5.7690027307 -0.4548781639 -0.8423850044
5.8211410530 -0.4457328537 -0.8543617078
5.8390429993 -0.4417510997 -0.8589023644
5.8730341162 -0.4493284499 -0.8595352326
5.9367212309 -0.4556016411 -0.8649027792
5.7875380762 -0.4472770919 -0.8489679598
5.9720749320 -0.4552794696 -0.8698901584
6.0771070050 -0.4632324848 -0.8800049527
6.0966465607 -0.4638506392 -0.8823412275
5.8801902942 -0.4609472241 -0.8543787351
6.0428013696 -0.4596995367 -0.8771948556
6.3038535836 -0.4718720917 -0.9056953737
6.2131229180 -0.4658966377 -0.8968097186
6.3514945159 -0.4733762996 -0.9112230522
6.3782041988 -0.4747502060 -0.9140421179
6.4229822982 -0.4754324442 -0.9196237056
6.1336538666 -0.4653126630 -0.8865731157
6.4013454290 -0.4768350572 -0.9160124970
6.4482002990 -0.4782511838 -0.9214823577
6.5510309908 -0.4863759927 -0.9305271836
6.5812616579 -0.4877798159 -0.9336897985
6.6237970227 -0.4892130664 -0.9384256955
6.5287598831 -0.4813059732 -0.9303270912
6.7503375190 -0.5004720838 -0.9488231694
6.6522648897 -0.4946798465 -0.9392165451
6.7269302664 -0.5045862323 -0.9436296031
6.7846148725 -0.4981909873 -0.9544529495
6.7869401218 -0.5124494795 -0.9472285342
6.6014220563 -0.4997633743 -0.9299688593
6.8450662108 -0.5081414803 -0.9569435009
6.8700267947 -0.5107677725 -0.9587224925
6.8888293079 -0.5043897837 -0.9645000213
6.8458920813 -0.5440268511 -0.9371178640
6.6104000642 -0.5431062666 -0.9065689806
6.7787340093 -0.5414084521 -0.9298314894
6.7387351030 -0.5390600566 -0.9259133846
6.7266064427 -0.5437187306 -0.9215841390
6.7986717953 -0.5432007665 -0.9314208682
6.5678736725 -0.5362180955 -0.9049716664
6.6030784426 -0.5241105076 -0.9167103820
6.6905171907 -0.5322084792 -0.9235417225
6.5512389570 -0.5246998283 -0.9095076713
6.6451493918 -0.5259619760 -0.9211932357
6.5800698453 -0.5325608977 -0.9087241199
6.5007453323 -0.5223613871 -0.9041953662
6.7033618267 -0.5329677336 -0.9247969221
6.4641496626 -0.5249853938 -0.8978192911
6.5303558921 -0.5208307957 -0.9090078510
6.3330910085 -0.5261898561 -0.8792996653
6.4059032595 -0.5192481414 -0.8932584366
6.4303371928 -0.5257341545 -0.8927867466
6.3490822544 -0.5268548362 -0.8810847386
6.4483218354 -0.5259453327 -0.8951082355
6.2089518091 -0.5041164580 -0.8753330768
6.1457150128 -0.5000113053 -0.8691370556
6.3160796546 -0.5146828071 -0.8837170981
6.2501705663 -0.5142180548 -0.8750286198
6.2699862271 -0.5083727126 -0.8811413111
6.4302300918 -0.5137917503 -0.8997569287
6.0897796261 -0.5050196797 -0.8584830991
6.0555556698 -0.5061056914 -0.8530699805
6.0166648854 -0.5028376358 -0.8495518977
5.8459350168 -0.4959649730 -0.8297362316
5.8838756756 -0.4991115396 -0.8331927243
5.9045441027 -0.4945864918 -0.8387247696
6.0045323301 -0.4909125422 -0.8548327055
5.9198540293 -0.4897319573 -0.8437014108
5.7838663168 -0.4861055428 -0.8268373867
6.0211610684 -0.4918495219 -0.8566062054
5.8047360864 -0.4835396046 -0.8312517038
5.7692627799 -0.4911457517 -0.8218046426
5.6771047668 -0.4804881201 -0.8148344299
5.6197264703 -0.4793896656 -0.8072562817
5.6564958496 -0.4815188054 -0.8112789757
5.7558141630 -0.4869820321 -0.8223130722
5.6931727260 -0.4792919727 -0.8178360735
5.4539688612 -0.4662413167 -0.7911981943
5.5570235368 -0.4629785064 -0.8078711678
5.5069853224 -0.4613515470 -0.8016537413
5.4611334176 -0.4556767597 -0.7984035333
5.3804712132 -0.4554376751 -0.7867649897
5.2940239011 -0.4550543434 -0.7742870122
5.3614837823 -0.4578047175 -0.7825906552
5.2446515893 -0.4559822900 -0.7664897423
5.1754065529 -0.4441093835 -0.7632593004
5.1294165013 -0.4462802685 -0.7552320376
5.1104095679 -0.4359462720 -0.7584833115
5.2165903677 -0.4479722139 -0.7670514036
5.1391035621 -0.4357450216 -0.7628171844
4.9689368553 -0.4354967842 -0.7374766404
4.9206522475 -0.4301141935 -0.7333529533
5.0173956416 -0.4322686575 -0.7466627289
4.8080640512 -0.4289061744 -0.7171033510
4.9562457975 -0.4274302093 -0.7402832313
4.8509855794 -0.4276588847 -0.7242969721
4.7931558068 -0.4156781099 -0.7225948018
4.8381183456 -0.4191562933 -0.7273320209
4.8906938444 -0.4264435275 -0.7309879832
4.6954078430 -0.4129656308 -0.7092234841
4.7379941359 -0.4138458731 -0.7152785797
4.7550326625 -0.4241767446 -0.7118649702
4.6654467376 -0.4164691886 -0.7025521713
4.4926915997 -0.3940182496 -0.6890315693
4.4420607018 -0.4036066417 -0.6756125988
4.5316561324 -0.3966821792 -0.6934846964
4.4726081714 -0.3940734302 -0.6859009605
4.2588090308 -0.3898372846 -0.6548045920
4.3877703085 -0.3931752167 -0.6732213895
4.0578689750 -0.3689889880 -0.6351814708
4.0312794497 -0.3715774247 -0.6293701026
3.9023622047 -0.3645262134 -0.6126581624
3.9554976660 -0.3644304195 -0.6213020923
3.8293469656 -0.3548742037 -0.6065023881
3.9178256053 -0.3603603209 -0.6175938984
3.8052288842 -0.3484744912 -0.6063473479
3.8506475526 -0.3560916446 -0.6092330063
3.7599626387 -0.3548256515 -0.5953166925
3.6900674822 -0.3504968182 -0.5863708250
3.6519065397 -0.3407608562 -0.5857569650
3.6702123635 -0.3451883729 -0.5861934572
3.5882627203 -0.3385891897 -0.5765065861
3.5176088635 -0.3283316728 -0.5708265919
3.5395209643 -0.3341254296 -0.5710601387
3.4666252063 -0.3275759362 -0.5628408428
3.1480876455 -0.3108938786 -0.5190172848
3.2452279131 -0.3118566049 -0.5348695151
3.2746760612 -0.3147273710 -0.5381668026
3.0856986702 -0.3000992682 -0.5147878939
3.0629273528 -0.3031622640 -0.5091484143
3.1218955325 -0.3043005882 -0.5184474134
2.8898178931 -0.2868074930 -0.4888351440
2.8100642402 -0.2840868504 -0.4766552126
3.0035807030 -0.2935255821 -0.5045494875
2.8418380142 -0.2864068257 -0.4807847417
2.9277248945 -0.2848250613 -0.4965400502
2.8682476043 -0.2812633303 -0.4883531876
2.7238392903 -0.2692413021 -0.4704493565
2.7925606224 -0.2777944541 -0.4773130723
2.6319223035 -0.2691748984 -0.4542911505
2.6092985777 -0.2673929025 -0.4513434734
2.4755533098 -0.2569175049 -0.4338829465
2.6923269108 -0.2762483722 -0.4608070284
2.4210565452 -0.2464125206 -0.4304159342
2.5509477549 -0.2587867460 -0.4460862142
2.2169716644 -0.2382749859 -0.3985789489
2.3658711417 -0.2487267603 -0.4192759477
2.1694518555 -0.2319837673 -0.3937023552
2.1987936452 -0.2352124728 -0.3970970903
2.3448032880 -0.2484262798 -0.4156583461
2.0245720701 -0.2214259327 -0.3737297493
1.9316050100 -0.2137683625 -0.3611261983
1.7510719550 -0.1968727669 -0.3378358651
1.8853290304 -0.2069388522 -0.3566175843
1.7382190396 -0.1946630295 -0.3367666095
1.8663027244 -0.2046100694 -0.3544836263
1.4007315311 -0.1718798710 -0.2869667647
1.6933096434 -0.1918081228 -0.3301492014
1.5936863630 -0.1880546994 -0.3136721024
1.4858755764 -0.1733073018 -0.3020904467
1.3389245631 -0.1633951643 -0.2802447973
1.1555849207 -0.1486639798 -0.2538089553
1.1739326954 -0.1494562852 -0.2568533678
1.0395033106 -0.1393072883 -0.2370884108
0.9752465089 -0.1318936081 -0.2289881038
0.6401323615 -0.1044953270 -0.1795540933
0.5787215101 -0.0984589538 -0.1708626268
0.3937154531 -0.0838301962 -0.1409328122
0.2042759413 -0.0518261096 -0.1113216862
0.2803991632 -0.0602253156 -0.1272905755
0.3615047508 -0.0685588289 -0.1420889638
0.6504454314 -0.0896525866 -0.1893685342
0.7240154364 -0.0928046200 -0.2016257348
0.9955000477 -0.1134306651 -0.2424402704
1.1084532992 -0.1213511300 -0.2593841006
1.0359748904 -0.1196233637 -0.2469690556
1.4029634733 -0.1426243344 -0.3029535886
1.5135254844 -0.1504338361 -0.3190475394
1.6443041238 -0.1626252899 -0.3366866107
1.6580528136 -0.1583529849 -0.3411689713
1.6292172344 -0.1580195905 -0.3361655260
1.7116456756 -0.1656838604 -0.3472618306
1.9999075136 -0.1873364168 -0.3875973178
1.8507169111 -0.1774058842 -0.3661179212
2.0382713896 -0.1907549702 -0.3927114065
2.0693046642 -0.1852097559 -0.4006815502
2.0870214901 -0.1881925440 -0.4023164767
2.2854959544 -0.2027477789 -0.4295557534
2.2454919993 -0.2021440492 -0.4229629999
2.3030811439 -0.2083257318 -0.4299400776
2.1738128853 -0.1977258805 -0.4127287960
2.4548517489 -0.2109116809 -0.4545501200
2.4207313417 -0.2082653796 -0.4500558624
2.5273456293 -0.2223956540 -0.4613253481
2.7133080682 -0.2274804805 -0.4902383494
2.7270714803 -0.2365455735 -0.4882428425
2.9111066615 -0.2418036933 -0.5161010164
2.7616066327 -0.2341719177 -0.4950605879
3.0362421987 -0.2523699931 -0.5317353555
2.9843064836 -0.2450736659 -0.5266239236
3.0508615246 -0.2502621340 -0.5351433656
3.1863062288 -0.2605054106 -0.5521844469
3.1181380467 -0.2605621976 -0.5411570251
3.1698995823 -0.2607934441 -0.5494005561
3.3400462983 -0.2692225401 -0.5728693483
3.2484773675 -0.2668339549 -0.5592227439
3.3776577330 -0.2705799628 -0.5782965501
3.3592053185 -0.2695642296 -0.5757994320
3.5381734360 -0.2791192590 -0.5996707313
3.4517166221 -0.2805712776 -0.5853358449
3.4667071620 -0.2793211749 -0.5882937227
3.6777120586 -0.2953968704 -0.6139958108
3.7063026989 -0.2971005966 -0.6177028954
3.6541610083 -0.2876105971 -0.6139623504
3.7908627616 -0.2922870978 -0.6331475492
3.7532407969 -0.2974894432 -0.6248792641
3.7756831257 -0.2922943727 -0.6308012379
3.9158031686 -0.3092693418 -0.6443957047
4.0495024778 -0.3096919491 -0.6648312748
4.1433677608 -0.3141562641 -0.6769814033
4.2552860214 -0.3246085695 -0.6889165672
4.1152225695 -0.3172941254 -0.6712514591
4.2273147963 -0.3212688612 -0.6862778547
4.0888400146 -0.3210931733 -0.6654745235
4.2878875235 -0.3345522324 -0.6891288805
4.3667362898 -0.3369178999 -0.6999024533
4.2124715263 -0.3248888024 -0.6823261632
4.5158263150 -0.3346786749 -0.7231117726
4.4529080405 -0.3361459926 -0.7131481001
4.4773778029 -0.3329145230 -0.7182821221
4.6548256943 -0.3444849553 -0.7389496996
4.6123910290 -0.3399545301 -0.7348417103
4.6875637552 -0.3500682948 -0.7411309319
4.4932757973 -0.3444531745 -0.7151645345
4.8443436850 -0.3550905684 -0.7615559766
4.8132223271 -0.3534905380 -0.7578372120
4.9631396067 -0.3614162607 -0.7756479915
4.9988986139 -0.3671566317 -0.7780746470
4.9150691826 -0.3699863799 -0.7646793949
5.0670180150 -0.3700369144 -0.7865086654
5.3957662355 -0.3819432347 -0.8271207826
5.1015678777 -0.3726503380 -0.7902369493
5.1273421764 -0.3757525417 -0.7923856401
5.2262808147 -0.3756437367 -0.8063198771
5.3210383876 -0.3901747640 -0.8127403051
5.2427384725 -0.3850221077 -0.8041915875
5.2912342150 -0.3876262071 -0.8097641764
5.2198647845 -0.3882035326 -0.7994766743
5.3775249738 -0.3950724668 -0.8183488822
5.4544141951 -0.3933093374 -0.8299250706
5.4662552890 -0.3843856454 -0.8357675424
5.5891742663 -0.3979969440 -0.8461444793
5.6858672747 -0.4001837140 -0.8583389931
5.5102069090 -0.3930541746 -0.8376791844
5.7007932849 -0.3971521939 -0.8618155419
5.7698310905 -0.4066110608 -0.8667854228
5.6726728716 -0.4079386734 -0.8528643627
5.4775931024 -0.4011802782 -0.8293720509
6.0878068201 -0.4168236315 -0.9043876725
5.9484041205 -0.4149441180 -0.8866918574
5.8072074419 -0.4072874964 -0.8714904247
5.9716825021 -0.4173057274 -0.8886778842
5.8867809304 -0.4196959990 -0.8762278172
5.9918566775 -0.4272610867 -0.8866569467
6.1150943779 -0.4344649430 -0.8996783480
6.1466428316 -0.4340977920 -0.9039743258
6.3565125928 -0.4333180106 -0.9315897194
6.2255584158 -0.4313441149 -0.9155225237
6.1241145868 -0.4182371718 -0.9085543166
6.2069837082 -0.4223470685 -0.9173681643
6.1863124317 -0.4321951101 -0.9100247348
6.4369323164 -0.4485351939 -0.9348299698
6.4515886248 -0.4489771742 -0.9365236005
6.3703660613 -0.4465824822 -0.9271119379
6.3886623388 -0.4439687570 -0.9307239887
6.3285882398 -0.4358476671 -0.9267674779
6.6232892071 -0.4525356038 -0.9565733785
6.5610914159 -0.4470558925 -0.9513084629
6.6519248391 -0.4471015417 -0.9627622707
6.5437082470 -0.4566828318 -0.9445572080
6.7170765091 -0.4634381779 -0.9632631938
6.4954513920 -0.4554236863 -0.9390564868
6.8023295950 -0.4515100467 -0.9796776391
6.7914882291 -0.4651915871 -0.9718343090
6.6796801072 -0.4527829003 -0.9635804887
6.8509024224 -0.4639623034 -0.9798506269
0.0137544180 -0.0163507348 -0.0363077252
0.3913527700 -0.0654863891 -0.1498487545
0.4592354806 -0.0709277536 -0.1612931234
0.5074075063 -0.0767183888 -0.1681645569
0.6376751106 -0.0856756257 -0.1887980279
0.7703195735 -0.0926547466 -0.2102341698
0.7543565410 -0.0905240162 -0.2082420188
0.8842546050 -0.1022079831 -0.2269791511
0.8051353220 -0.0977722377 -0.2143689882
0.8697018793 -0.1009767755 -0.2248452531
1.1632098258 -0.1204991161 -0.2697067643
1.1502242316 -0.1184234363 -0.2682869008
1.3621093139 -0.1370225337 -0.2982762016
1.2650367470 -0.1259279207 -0.2856867169
1.4581720770 -0.1393843515 -0.3142556276
1.4805294376 -0.1388033493 -0.3184769076
1.5962104020 -0.1523219544 -0.3329363390
1.7490919482 -0.1612258537 -0.3558882983
1.8717773539 -0.1646028044 -0.3756921639
1.8355426111 -0.1667332607 -0.3684458449
1.9321064240 -0.1695691463 -0.3839536737
1.9892710591 -0.1772316841 -0.3904609846
1.9002051241 -0.1689185093 -0.3787025570
2.0559419302 -0.1751444754 -0.4029238174
2.1214989420 -0.1841317016 -0.4100684624
2.1947080048 -0.1834166690 -0.4228500295
2.3164372345 -0.1977905202 -0.4371502892
2.2667529591 -0.1923251086 -0.4311342915
2.1007253199 -0.1852339571 -0.4060398210
2.3851697026 -0.1998813464 -0.4478999981
2.4743258486 -0.2028869442 -0.4614226695
2.6961414261 -0.2191543167 -0.4911396870
2.7250589094 -0.2168509935 -0.4969732865
2.8774853142 -0.2266981188 -0.5174573518
3.0587429665 -0.2388189093 -0.5416323167
3.1950910457 -0.2463518336 -0.5600533206
3.1341377409 -0.2488801178 -0.5491858179
3.0776667646 -0.2373658975 -0.5453076679
3.3108211906 -0.2594909119 -0.5726729636
3.2941902637 -0.2605101894 -0.5695606238
3.5537789861 -0.2698736605 -0.6063124060
3.4160992278 -0.2585107428 -0.5898718742
3.4577995345 -0.2661629544 -0.5929703390
3.4819035999 -0.2601082492 -0.5994421873
3.6090643590 -0.2787870145 -0.6109705573
3.7376441780 -0.2882508521 -0.6268373179
3.4801759065 -0.2725257165 -0.5936248777
3.6351189425 -0.2777201862 -0.6155189833
3.6877364655 -0.2835154772 -0.6211531459
3.7786988732 -0.2779571188 -0.6377147121
3.7488757219 -0.2820266328 -0.6313396890
4.0068811545 -0.2942351676 -0.6653093988
3.8881448770 -0.2927883072 -0.6478126486
3.8741510013 -0.2931815811 -0.6454986705
4.1151210426 -0.3026364771 -0.6779709890
4.0911174797 -0.2999688420 -0.6755783471
4.3712699247 -0.3202104633 -0.7083698437
4.2941642367 -0.3126244732 -0.7002448817
4.3100913430 -0.3189199869 -0.6998107658
4.3264742548 -0.3141863512 -0.7043718715
4.4017332658 -0.3206498160 -0.7127225522
4.6189398868 -0.3261310837 -0.7420159547
4.5232749682 -0.3196768067 -0.7309463064
4.7459857620 -0.3302407770 -0.7587100350
4.7103774323 -0.3311401369 -0.7531146757
4.7215566071 -0.3435610057 -0.7491963781
4.7973965350 -0.3336329512 -0.7645628897
4.8822703173 -0.3461678617 -0.7710477543
4.7790199551 -0.3381801813 -0.7599149692
4.8402186812 -0.3344198308 -0.7703085313
4.9008753406 -0.3467211459 -0.7734496321
5.0068903131 -0.3568410047 -0.7840234856
5.2345802786 -0.3627397438 -0.8133423133
5.1717672694 -0.3521141027 -0.8093634834
5.2075440040 -0.3539665187 -0.8135058885
5.2474811603 -0.3556576411 -0.8182982976
5.3931669275 -0.3644768353 -0.8345964661
5.3651460714 -0.3747689254 -0.8261060870
5.4135950948 -0.3708435003 -0.8345900443
5.2845073231 -0.3716159420 -0.8163126461
5.4321810949 -0.3817301766 -0.8323084687
5.3473334710 -0.3726103025 -0.8245959699
5.1370577327 -0.3658730449 -0.7983951347
5.4962511196 -0.3817274019 -0.8410186394
5.4803579548 -0.3748261562 -0.8419489260
5.5125279742 -0.3744634092 -0.8464684367
5.4459145563 -0.3766894417 -0.8364511403
5.7079963176 -0.3858482711 -0.8678587765
5.7522095283 -0.3961151157 -0.8692609142
5.6280245144 -0.3838353364 -0.8579257755
5.7341215525 -0.3960657672 -0.8668329272
5.9778012218 -0.3968744530 -0.8987998897
5.9608264585 -0.3965494889 -0.8967045871
5.8499893024 -0.3964884921 -0.8821025895
5.8796423496 -0.3912313307 -0.8883650252
5.9464440548 -0.3943439487 -0.8957915700
6.0457984647 -0.3956409978 -0.9083257847
6.0280496233 -0.3993268960 -0.9043365127
6.0127328841 -0.4026722513 -0.9008203908
6.1049817425 -0.4053628468 -0.9117942136
5.9980374934 -0.3996469833 -0.9002322573
6.0861936054 -0.4019531502 -0.9108376215
6.1632601002 -0.4160894013 -0.9145539505
6.1451180454 -0.4166705059 -0.9119625647
6.2254361528 -0.4092128023 -0.9256174118
6.1508358217 -0.4043328526 -0.9182091225
6.2592491073 -0.4058981518 -0.9314441373
6.3359539147 -0.4227117897 -0.9337917148
6.2797504719 -0.4221463680 -0.9268205181
6.3790309057 -0.4303794485 -0.9359029551
6.4250690299 -0.4190551392 -0.9468791767
6.3579610962 -0.4151186439 -0.9400124118
6.3194351340 -0.4187632234 -0.9334325323
6.7194363129 -0.4267973551 -0.9803710019
6.5824429914 -0.4291334681 -0.9621931460
6.4652713080 -0.4336838579 -0.9455052549
6.6428157972 -0.4270869231 -0.9706584473
6.6740955949 -0.4262233546 -0.9749565071
6.4846937259 -0.4300241677 -0.9495693983
6.5640391515 -0.4316077653 -0.9587859571
6.5523095451 -0.4201815984 -0.9624233703
6.6761878713 -0.4403748644 -0.9688962032
6.6289421218 -0.4408296018 -0.9627838659
6.6609499834 -0.4341597276 -0.9697668767
6.6148005780 -0.4389980940 -0.9618333356
6.7397669227 -0.4465505150 -0.9740893662
6.6912903204 -0.4388379496 -0.9714717148
6.7881921189 -0.4449385260 -0.9808662076
6.8212683822 -0.4480174938 -0.9836016391
6.8441915694 -0.4523772470 -0.9844627882
6.8321318227 -0.4838634650 -0.9678104315
6.8488281445 -0.4781536494 -0.9727723470
6.7303097995 -0.4773157834 -0.9581276373
6.5627453318 -0.4755707167 -0.9376053202
6.6797707281 -0.4766645581 -0.9520003743
6.6571705555 -0.4756945069 -0.9495998927
6.5939911497 -0.4765968172 -0.9410816698
6.6407141815 -0.4814364955 -0.9446268229
6.5244802982 -0.4618117444 -0.9396011175
6.4217020313 -0.4572124927 -0.9286307437
6.4562590557 -0.4644198463 -0.9295602323
6.1586976309 -0.4569153452 -0.8942702578
6.1756676020 -0.4500397407 -0.8999357645
6.1467164191 -0.4495714585 -0.8963712601
6.2264866684 -0.4501711110 -0.9065380861
6.1905771640 -0.4498229729 -0.9020004821
5.9026630752 -0.4430269689 -0.8668450550
6.0567248432 -0.4485436716 -0.8848445408
6.1096047508 -0.4529088883 -0.8897864389
6.0827376313 -0.4521587306 -0.8865414872
5.9920077616 -0.4482446275 -0.8762739606
5.9692756799 -0.4339413932 -0.8803647753
5.8698540395 -0.4296705683 -0.8691044920
5.7996428915 -0.4285781153 -0.8601904475
5.8891150241 -0.4355380862 -0.8687651347
5.9573104632 -0.4298716379 -0.8807880345
5.9424913653 -0.4345366141 -0.8764580877
5.9266609051 -0.4288466429 -0.8771708830
5.7805353013 -0.4248736676 -0.8594639366
5.5113965312 -0.4113979910 -0.8289881326
5.7030015431 -0.4185506308 -0.8519052705
5.5938437564 -0.4160181719 -0.8380778837
5.3942007481 -0.4097909002 -0.8134208744
5.2389558388 -0.4043640635 -0.7941191831
5.1632983534 -0.4010558672 -0.7850444782
5.3312621445 -0.4040180647 -0.8073825857
5.4065209972 -0.4038776181 -0.8181256088
5.1810281097 -0.3974438751 -0.7893653535
5.2078378374 -0.3961884322 -0.7937952649
5.3418592920 -0.3973250307 -0.8122329456
5.1049542362 -0.3868218608 -0.7838895991
5.2572237948 -0.3949472893 -0.8014196550
4.8194151288 -0.3812573695 -0.7451845132
4.8630848619 -0.3802710285 -0.7520254028
5.0354719354 -0.3875803028 -0.7734268187
4.9524762606 -0.3886027001 -0.7608517123
4.8462860446 -0.3681826716 -0.7556296311
4.9900306097 -0.3794453459 -0.7708904427
4.9644417224 -0.3779363121 -0.7679257400
4.8989032981 -0.3777774923 -0.7584789008
5.0563490033 -0.3803870270 -0.7800591047
4.6567886946 -0.3707200661 -0.7264511844
4.6768725234 -0.3622733038 -0.7336662467
4.6152088955 -0.3681143293 -0.7215633728
4.7444117143 -0.3725744025 -0.7385704696
4.5752905683 -0.3567870597 -0.7212850244
4.5203931737 -0.3558747895 -0.7135672842
4.3800522650 -0.3498223742 -0.6955581713
4.3213419669 -0.3431526213 -0.6899441263
4.4071132717 -0.3477075657 -0.7007411249
4.1759763541 -0.3417023875 -0.6685096339
4.1172681487 -0.3355350109 -0.6626446590
4.0922312371 -0.3348995547 -0.6591458061
4.1034682821 -0.3267988523 -0.6649104142
4.1917669862 -0.3334000427 -0.6750692349
4.0757755836 -0.3316830166 -0.6582335463
4.0156586117 -0.3297887200 -0.6498033432
3.9270943988 -0.3207454246 -0.6405112649
4.0611244762 -0.3234600205 -0.6600608954
3.9959063684 -0.3309356990 -0.6461485233
3.8755964508 -0.3178547251 -0.6339238964
3.9451230173 -0.3189069929 -0.6442430446
3.7871124610 -0.3116689969 -0.6232150793
3.8410129171 -0.3121249727 -0.6313949479
3.6515811990 -0.3088754906 -0.6031593444
3.6114182223 -0.3051875212 -0.5985962072
3.6908601006 -0.3068719462 -0.6104280419
3.4162834691 -0.2821789278 -0.5789718424
3.5521403319 -0.2912188741 -0.5961253418
3.5343648392 -0.2966373719 -0.5905793253
3.6384640022 -0.2971832066 -0.6069145013
3.3715668864 -0.2823524802 -0.5716522484
3.2748868908 -0.2822568756 -0.5559319704
3.1687181078 -0.2750276646 -0.5422320103
3.0850546467 -0.2615008196 -0.5353523173
3.0702871487 -0.2700590926 -0.5286633861
3.1515121812 -0.2669592548 -0.5434612157
2.9784736600 -0.2583884086 -0.5192375588
2.9158228165 -0.2607735111 -0.5076037054
2.9339761832 -0.2607259203 -0.5106528193
2.8503152002 -0.2503902874 -0.5018798435
2.7371182855 -0.2465279567 -0.4849469916
2.7790139054 -0.2463436769 -0.4920211938
2.5441012947 -0.2346897090 -0.4580741204
2.6048423299 -0.2332228221 -0.4691467126
2.5660000762 -0.2308106983 -0.4637416840
2.4680307044 -0.2221621749 -0.4513915801
2.4104436763 -0.2207180863 -0.4423117828
2.1668075506 -0.2083571387 -0.4062622441
2.1807720473 -0.2089867299 -0.4083740800
2.1354852728 -0.2042792630 -0.4028586598
2.2582163161 -0.2081499647 -0.4222507164
2.3255638186 -0.2113395813 -0.4323589606
1.7768988196 -0.1801619668 -0.3516647700
1.8670685563 -0.1853727246 -0.3650493914
1.5539349046 -0.1604276815 -0.3214645722
1.4307913782 -0.1535993500 -0.3026034371
1.6137956759 -0.1627140759 -0.3311496856
1.1998950104 -0.1376676361 -0.2682029140
1.2892493059 -0.1400144440 -0.2835168973
1.3473793552 -0.1429189814 -0.2927904002
1.0150519491 -0.1213887580 -0.2422374115
1.2144018726 -0.1350752495 -0.2721763256
0.9704616608 -0.1165195373 -0.2362807819
0.6681388402 -0.0932745390 -0.1909868547
0.4365923811 -0.0769560297 -0.1539436579
0.3434114749 -0.0700090908 -0.1372683397
0.1115620152 -0.0428046462 -0.0850047677
0.8149901863 -0.0858072526 -0.2212109867
0.8335264704 -0.0890725565 -0.2232763929
1.1182344085 -0.1055366367 -0.2679438347
1.4513920979 -0.1227018165 -0.3199805489
1.4689421889 -0.1275918093 -0.3211005190
1.6752793050 -0.1368299445 -0.3533457042
1.9354364042 -0.1508292584 -0.3922764615
2.1982216175 -0.1652067097 -0.4308735690
2.1740721426 -0.1670417494 -0.4261119761
2.1458388406 -0.1625004153 -0.4231888571
2.2376044002 -0.1730380372 -0.4343593429
2.3626922927 -0.1762636643 -0.4539898708
2.3286341727 -0.1752211637 -0.4487099357
2.0868444939 -0.1676645819 -0.4112874495
2.1593891781 -0.1713409927 -0.4219582546
2.5291458292 -0.1870404364 -0.4770386312
2.4436116136 -0.1835544967 -0.4644148724
2.7171422832 -0.2010604461 -0.5022706903
2.4002231549 -0.1859865017 -0.4563506406
2.5836936394 -0.1917866088 -0.4840916552
2.9118801286 -0.2082518539 -0.5306498119
2.7563899837 -0.2032222453 -0.5077169608
2.7784703040 -0.2044507048 -0.5107702228
2.8496310858 -0.2006676530 -0.5236712918
3.0525195330 -0.2180301446 -0.5493250063
3.0316874723 -0.2185456856 -0.5457822985
2.9255159114 -0.2158756362 -0.5298211582
2.9818778418 -0.2165751616 -0.5385780686
2.8300120119 -0.2094120531 -0.5170696039
3.1980425973 -0.2198311134 -0.5714631710
3.1729802538 -0.2228359629 -0.5663440172
3.1197596452 -0.2172726215 -0.5601956238
3.3932605453 -0.2412227146 -0.5936266476
3.3778838290 -0.2347159695 -0.5937872653
3.3446952804 -0.2355284189 -0.5882602594
3.4381833368 -0.2421339733 -0.6001799057
3.5945094282 -0.2418299270 -0.6242863771
3.4085001191 -0.2393064434 -0.5967432951
3.6505680013 -0.2488252726 -0.6301221471
3.6723552694 -0.2480707377 -0.6337634442
3.5169264549 -0.2449852361 -0.6111347544
3.5802609888 -0.2499755280 -0.6188796547
3.8376853604 -0.2517907811 -0.6573242181
4.0040788089 -0.2614886112 -0.6784525785
3.7551544769 -0.2589676183 -0.6421053746
3.9146566913 -0.2611491763 -0.6651715700
3.8823723301 -0.2633834038 -0.6594449022
4.0318886044 -0.2727381866 -0.6781769755
4.0978841097 -0.2747436200 -0.6872214039
4.1083312920 -0.2664970840 -0.6920134243
4.1387655489 -0.2801543438 -0.6910758003
4.3172057744 -0.2821861707 -0.7164334553
4.2782653075 -0.2812889821 -0.7110791422
4.2324522840 -0.2825910220 -0.7038477595
4.2980048880 -0.2852776459 -0.7123961801
4.5889259954 -0.2941059050 -0.7509798416
4.4639199872 -0.2951026285 -0.7326850596
4.6292915896 -0.2960492028 -0.7559918428
4.4415338144 -0.2875579225 -0.7324622723
4.7449430952 -0.2983725079 -0.7716344622
4.7586185213 -0.3132251365 -0.7677206321
4.9498114016 -0.3127350322 -0.7946459627
4.9134643019 -0.3076338015 -0.7915817455
4.8245647837 -0.3063318207 -0.7796690404
4.7935880368 -0.2984654635 -0.7784487768
4.9680047825 -0.3214473729 -0.7937447050
5.0393005964 -0.3249786330 -0.8023151657
5.0567144446 -0.3233074946 -0.8054101937
4.7929463530 -0.3138732641 -0.7722674435
4.9884896243 -0.3200594353 -0.7971570663
5.2200775156 -0.3210760808 -0.8287219560
5.1540186304 -0.3293996913 -0.8164214396
5.1303541184 -0.3262382851 -0.8144437855
5.1931090860 -0.3212630522 -0.8249698568
5.2629588151 -0.3224020306 -0.8340462286
5.3351629840 -0.3372323348 -0.8380306167
5.4103831933 -0.3348920291 -0.8492150522
5.3091456197 -0.3352130450 -0.8352805185
5.3505071313 -0.3387408230 -0.8395269687
5.3654230466 -0.3290144209 -0.8454068401
5.5466852294 -0.3405437662 -0.8652109927
5.4694166736 -0.3420094684 -0.8543558621
5.6132827645 -0.3425521017 -0.8732735006
5.5140887651 -0.3319633386 -0.8642685521
5.4495394851 -0.3382107794 -0.8532143570
5.5337490443 -0.3486150128 -0.8602995648
5.5164796552 -0.3460002484 -0.8590367537
5.7040517002 -0.3507774897 -0.8820924895
5.7436122101 -0.3456015404 -0.8893998589
5.9792563675 -0.3549045680 -0.9163881732
5.9280144123 -0.3530305128 -0.9104888247
6.0806024448 -0.3730746620 -0.9223375036
5.9663880972 -0.3695832330 -0.9089172221
6.1152731398 -0.3577539430 -0.9328876100
5.9058520073 -0.3671051977 -0.9020522718
6.2464593079 -0.3733988847 -0.9432817623
6.2969443639 -0.3667945848 -0.9522636013
6.1804777269 -0.3659081192 -0.9379170729
6.3690771202 -0.3746415332 -0.9582636851
6.4165028608 -0.3793611607 -0.9623823815
6.4444095399 -0.3772399376 -0.9667426044
6.3579806157 -0.3868749494 -0.9520267178
6.3822386796 -0.3858080246 -0.9555096847
6.3279487353 -0.3778115713 -0.9518203400
6.6442541932 -0.3863646713 -0.9877403454
6.5359235688 -0.3851416514 -0.9749211766
6.6621137311 -0.3810515146 -0.9920340973
6.4647109522 -0.3898366788 -0.9643201975
6.4848173466 -0.3873727163 -0.9677633791
6.5970664303 -0.3960702155 -0.9781085806
6.5622619171 -0.3962039619 -0.9737817984
6.7193091543 -0.3936557874 -0.9940742467
6.5786949069 -0.3943250615 -0.9765425760
6.7676753219 -0.3899614968 -1.0014740750
6.6922962732 -0.4026429368 -0.9872039417
6.7746669454 -0.4054754351 -0.9961989789
6.8059607547 -0.3868338703 -1.0074090806
6.8504988227 -0.3938812579 -1.0100260150
6.8750179665 -0.3952338159 -1.0124658468
0.1906122827 -0.0402917997 -0.1122501629
0.3565532525 -0.0543205289 -0.1470415288
0.4469607846 -0.0621487255 -0.1625283758
0.6483095534 -0.0735330295 -0.1958014455
0.7233976924 -0.0757503810 -0.2085131683
1.0578403038 -0.0938601737 -0.2617042210
1.3627165035 -0.1130166531 -0.3082631676
1.2651315226 -0.1074780249 -0.2931409371
1.3413854529 -0.1160903797 -0.3033708909
1.4104395082 -0.1144262600 -0.3159844932
1.5750017315 -0.1285950301 -0.3391288089
1.6298065013 -0.1301923253 -0.3479926464
1.6929932240 -0.1302073882 -0.3588885927
1.8815226408 -0.1390509240 -0.3875341987
1.7140082772 -0.1344671998 -0.3608989365
1.7855979000 -0.1384553193 -0.3715303747
2.0748356295 -0.1517599792 -0.4154094773
2.2138321584 -0.1619282191 -0.4346808245
2.2654269608 -0.1664339064 -0.4415634180
2.3455563757 -0.1707883270 -0.4532313324
2.4158468030 -0.1751507744 -0.4631453387
2.6953525786 -0.1886531878 -0.5035193408
2.6490923591 -0.1892021599 -0.4958062169
2.8348762923 -0.1924862703 -0.5243605023
2.7494527051 -0.1890800808 -0.5120444767
2.7680213174 -0.1912016887 -0.5142101034
2.9988317247 -0.2017386132 -0.5469935201
2.8875457629 -0.2003095088 -0.5298346440
2.9379312990 -0.1997020054 -0.5380680679
3.3623709035 -0.2156784736 -0.5985857687
3.2882728315 -0.2109329433 -0.5888172668
3.1670638124 -0.2079596182 -0.5710642957
3.1019830017 -0.2133136435 -0.5589580826
3.3294693394 -0.2237755865 -0.5904691532
3.3446948724 -0.2199454427 -0.5942559838
3.5102006908 -0.2221129729 -0.6188219235
3.7052322915 -0.2319772591 -0.6448448990
3.4394858737 -0.2286503071 -0.6056407915
3.4289580671 -0.2195246297 -0.6074185548
3.6532783323 -0.2321797741 -0.6368645332
3.7191226402 -0.2425105814 -0.6430575115
3.5503369787 -0.2320460169 -0.6212504148
3.6849812788 -0.2367812225 -0.6399843641
3.7420461050 -0.2416055082 -0.6468712939
3.8760096748 -0.2467291867 -0.6649039832
3.8178511539 -0.2476221741 -0.6559208281
4.0629256396 -0.2583939248 -0.6883920848
3.9953981807 -0.2483330198 -0.6820718441
4.0437751072 -0.2560310029 -0.6864181013
4.2994179754 -0.2631725787 -0.7210612553
4.1340437456 -0.2536008945 -0.7005624159
4.0823827563 -0.2620495408 -0.6899224902
4.1568397050 -0.2583306143 -0.7021250644
4.1757391880 -0.2602958220 -0.7041450408
4.3967487423 -0.2717743205 -0.7320265225
4.3207432755 -0.2656720112 -0.7232360765
4.2329380621 -0.2649731888 -0.7107289108
4.5132677859 -0.2781474805 -0.7462899464
4.5563792061 -0.2742129977 -0.7538692337
4.4578223835 -0.2734626883 -0.7401512462
4.4415591957 -0.2728047934 -0.7380853913
4.6207758622 -0.2747320865 -0.7628218344
4.4224997462 -0.2707729981 -0.7361312629
4.7457015584 -0.2813935686 -0.7780952277
4.7109673045 -0.2848229104 -0.7718926264
4.5688047793 -0.2855822005 -0.7514232026
4.6599723373 -0.2802521070 -0.7663437307
4.5275960563 -0.2826180340 -0.7466690135
4.7593366757 -0.2925865370 -0.7758862029
4.8177155474 -0.2950223579 -0.7830789716
4.9266549072 -0.2950848139 -0.7981580652
5.0091900031 -0.2931679732 -0.8103097786
4.8376517200 -0.2941935938 -0.7861496492
4.8827670175 -0.2949026017 -0.7921413852
4.9564724555 -0.2897385963 -0.8042716353
5.0855445251 -0.3107946178 -0.8143667782
5.0418763412 -0.3058167107 -0.8101566323
4.8988590240 -0.2985041146 -0.7930383986
4.9653034136 -0.3046153717 -0.7999862678
5.1495666583 -0.3053412839 -0.8250958267
5.3382103303 -0.3075939004 -0.8497763295
5.1960488203 -0.3033331757 -0.8321264107
5.2134534891 -0.3022228626 -0.8348916591
5.1069889891 -0.2948687245 -0.8232155333
5.3967092947 -0.3223992685 -0.8522054257
5.4125353042 -0.3133982179 -0.8576794504
5.3064874807 -0.3162962238 -0.8422628233
5.3780136475 -0.3199694224 -0.8505766520
5.4368455726 -0.3128584187 -0.8611674171
5.2404970324 -0.3156728931 -0.8335682165
5.6057629606 -0.3205929346 -0.8805937929
5.5525138518 -0.3240677126 -0.8722844495
5.7121391903 -0.3307650236 -0.8908554596
5.7455935300 -0.3294316994 -0.8957611989
5.5749856251 -0.3290529733 -0.8734017468
5.7724492481 -0.3304614496 -0.8989215571
5.6369329174 -0.3330106343 -0.8801056272
5.9750986382 -0.3356656152 -0.9230682349
5.8604540143 -0.3274214319 -0.9113885554
5.8110966914 -0.3350165884 -0.9022328438
5.9045724583 -0.3317093487 -0.9154701640
5.8295334467 -0.3417619081 -0.9021040282
6.0067271135 -0.3489081389 -0.9222284223
5.9392054627 -0.3436042915 -0.9155155563
6.0275364343 -0.3402374664 -0.9281137970
6.2616061115 -0.3467992227 -0.9552957964
6.1357703877 -0.3428491520 -0.9410114779
6.1938052438 -0.3456742120 -0.9472277652
6.1525844892 -0.3461453247 -0.9418948753
6.3242567005 -0.3495766650 -0.9621073371
6.3025505609 -0.3498796621 -0.9592787905
6.1729270578 -0.3521127278 -0.9422305378
6.2415725461 -0.3624809397 -0.9469810522
6.2783056593 -0.3602091937 -0.9524192167
6.2595903588 -0.3629003338 -0.9490805004
6.4631735842 -0.3691587580 -0.9722393457
6.3179291456 -0.3632885158 -0.9562373228
6.3958711834 -0.3616762178 -0.9665881952
6.5951946845 -0.3678655366 -0.9887965817
6.4987517061 -0.3521657785 -0.9828665328
6.6561156299 -0.3644787492 -0.9974695844
6.5095088736 -0.3672502225 -0.9785899874
6.5352078042 -0.3685888354 -0.9812237462
6.7137604439 -0.3784871755 -0.9993013075
6.4951883409 -0.3727917086 -0.9747938025
6.7353567841 -0.3689718798 -1.0054552214
6.6380773407 -0.3709164057 -0.9928887672
6.8396342939 -0.3778961801 -1.0147962714
6.8878888928 -0.3864064567 -1.0174078668
6.8048355415 -0.4118579992 -0.9972716737
6.8335561312 -0.4216864272 -0.9966512409
6.7368693482 -0.4181980782 -0.9861842303
6.7853534022 -0.4202207771 -0.9913400088
6.7568509305 -0.4206622675 -0.9876228975
6.5184632300 -0.4146598968 -0.9606136121
6.5704475830 -0.4125616196 -0.9679372175
6.6165720872 -0.4112692924 -0.9741956609
6.7220038283 -0.4125307641 -0.9867273329
6.5441730239 -0.4001981085 -0.9698846512
6.4757658128 -0.4085811389 -0.9578816177
6.6507670448 -0.4087721929 -0.9794830728
6.4957629518 -0.4055905425 -0.9616176553
6.5088271093 -0.4030646071 -0.9642991925
6.6012335469 -0.4107376674 -0.9725190004
6.2427941845 -0.4004009685 -0.9317040470
6.2801874300 -0.3998615222 -0.9366919204
6.2994613184 -0.4054823045 -0.9367805496
6.4254829016 -0.3992171164 -0.9554619555
6.1999111133 -0.3914407491 -0.9300148109
6.1305691624 -0.3973587457 -0.9186958892
6.1628112638 -0.3969458541 -0.9229746686
6.3991466111 -0.3915695753 -0.9553270401
5.9626959244 -0.3821728470 -0.9031647373
5.8415809034 -0.3823738995 -0.8872448779
6.1019034690 -0.3908769120 -0.9177027069
5.9259122914 -0.3859196207 -0.8967787412
6.0922170110 -0.3806636439 -0.9207341421
5.9955772064 -0.3841298547 -0.9066402813
5.8227714301 -0.3708466297 -0.8896364716
5.7860331482 -0.3662231201 -0.8867787464
5.8057795204 -0.3716756137 -0.8870660055
5.8580760929 -0.3803574356 -0.8902501093
5.8753012444 -0.3752924872 -0.8946336285
6.0504307056 -0.3778377768 -0.9164599348
6.0333636692 -0.3765190418 -0.9147834389
5.7329115387 -0.3776006236 -0.8748776260
5.7789450664 -0.3778659636 -0.8809425311
5.7520370104 -0.3633955848 -0.8834214876
5.6019315092 -0.3680763179 -0.8613113077
5.6863579235 -0.3695776528 -0.8720074661
5.6331161412 -0.3566757511 -0.8702930388
5.4734132828 -0.3589996553 -0.8478869209
5.5659340111 -0.3562640144 -0.8614521176
5.6560809670 -0.3605097108 -0.8717609689
5.5224677844 -0.3609132002 -0.8536635795
5.4388960672 -0.3594984257 -0.8430384203
5.4221441296 -0.3480665425 -0.8455439270
5.3568681879 -0.3559736673 -0.8332340543
5.2673521104 -0.3396791929 -0.8277728908
5.1121537637 -0.3311780320 -0.8099938247
5.2274469799 -0.3459734310 -0.8196329857
5.1758547670 -0.3365213558 -0.8165110325
5.3729908838 -0.3449314875 -0.8400993479
4.9768078689 -0.3381199210 -0.7880234529
5.0590696675 -0.3383366508 -0.7995346516
5.0319294858 -0.3422858481 -0.7940448805
4.9290714405 -0.3357037863 -0.7823073228
4.9112458390 -0.3365748032 -0.7794266263
4.9379884187 -0.3226391282 -0.7890627903
4.9544399159 -0.3299340380 -0.7883133121
4.8941600546 -0.3279213777 -0.7806582623
4.9180481913 -0.3233707383 -0.7859424976
4.7653252239 -0.3271702851 -0.7628031642
4.7764856410 -0.3181710525 -0.7681643041
4.8263717050 -0.3213800613 -0.7738499418
4.6523347801 -0.3190856998 -0.7498992168
4.5389887125 -0.3137055153 -0.7357871080
4.5787120973 -0.3147246100 -0.7410974717
4.4201265357 -0.3057624752 -0.7219565079
4.6155249773 -0.3089585780 -0.7488426221
4.5135859570 -0.3074330598 -0.7347564775
4.3564608780 -0.2974139979 -0.7160542680
4.3782759506 -0.3015587045 -0.7175370039
4.3062135012 -0.2991819574 -0.7078776800
4.1016296554 -0.2906191530 -0.6812189447
4.1147167052 -0.2817199321 -0.6868997090
3.9150315271 -0.2779316317 -0.6583909070
4.0284422071 -0.2868535953 -0.6718025711
3.8275956547 -0.2705994402 -0.6482418706
3.8955207804 -0.2732027558 -0.6574276918
4.0161551100 -0.2772934417 -0.6739658175
3.9352364191 -0.2727558411 -0.6636272323
3.7940588777 -0.2746311573 -0.6414690364
3.5652996530 -0.2597090279 -0.6125233251
3.6732826650 -0.2632919378 -0.6277323649
3.5314537052 -0.2496903031 -0.6114996816
3.5954012813 -0.2562248885 -0.6186495191
3.6140904850 -0.2541593699 -0.6224119831
3.4299476986 -0.2528575514 -0.5944527757
3.2070175009 -0.2379701222 -0.5655428029
3.2472747717 -0.2370944757 -0.5722823206
3.1433796989 -0.2357952794 -0.5563868325
3.1842392889 -0.2346815617 -0.5633218566
3.0425229763 -0.2315506420 -0.5421527863
2.9072624781 -0.2206213655 -0.5248790945
2.9907670249 -0.2280980814 -0.5352362491
2.8615432437 -0.2151876300 -0.5197724519
2.8438338882 -0.2120213436 -0.5182410976
2.7915223201 -0.2163124868 -0.5079760448
2.6860181099 -0.2066430806 -0.4948659254
2.4903466250 -0.1983183847 -0.4660512015
2.6088994826 -0.2045204609 -0.4830219376
2.4250812477 -0.1912756855 -0.4582353623
2.4643328229 -0.1935774995 -0.4637496759
2.3856885221 -0.1859124703 -0.4539860041
2.2788278363 -0.1827756950 -0.4373047737
2.3347624333 -0.1891610016 -0.4440496502
2.2527022935 -0.1822236650 -0.4331316974
2.1093445887 -0.1757704590 -0.4116738189
2.2972031866 -0.1803633764 -0.4414184175
1.9460448227 -0.1657486169 -0.3880260039
2.0247220648 -0.1656085730 -0.4016237365
1.9831092015 -0.1630539610 -0.3955379947
2.0110579130 -0.1650547327 -0.3995054681
1.9157915726 -0.1586971927 -0.3857873450
1.6839009421 -0.1494428684 -0.3497123651
1.5201645101 -0.1364624992 -0.3264338361
1.3843734570 -0.1308215981 -0.3049720344
1.5898422123 -0.1384590894 -0.3378242579
1.5003484492 -0.1347672553 -0.3236688822
1.2033703213 -0.1181614730 -0.2779576276
1.0961491655 -0.1113048494 -0.2616453087
1.0758020014 -0.1097723664 -0.2586470885
0.8495706594 -0.0963001951 -0.2232105286
0.4158040171 -0.0635682214 -0.1556975289
0.3119506300 -0.0572388761 -0.1361549437
0.1501760757 -0.0423445817 -0.0991240077
0.1128694271 -0.0288695801 -0.0911829551
0.3968175351 -0.0518234931 -0.1561987000
0.4651400300 -0.0552932791 -0.1684136023
0.5729320999 -0.0593306486 -0.1870180769
0.7405453469 -0.0693006395 -0.2137782336
0.9495248145 -0.0770064568 -0.2482644403
0.9329782748 -0.0812851625 -0.2439621855
1.2300825848 -0.0919523701 -0.2923220428
1.2877766784 -0.0979455796 -0.3003965140
1.1072772160 -0.0891647663 -0.2719299880
1.4121217301 -0.1005849053 -0.3209445871
1.6235379069 -0.1109776632 -0.3535325242
1.6653033859 -0.1179901316 -0.3583759193
1.5566492818 -0.1098777732 -0.3425187414
1.7105141750 -0.1146880200 -0.3670953698
2.0404315513 -0.1312171754 -0.4167469610
2.0210063890 -0.1362336794 -0.4118978993
2.1039085331 -0.1375272913 -0.4250839914
2.1253313418 -0.1376912541 -0.4285287054
2.3532862756 -0.1533315354 -0.4607157958
2.2926324315 -0.1477052878 -0.4526223991
2.5238894933 -0.1569361538 -0.4869288132
2.4300619571 -0.1500973063 -0.4741236934
2.4127718998 -0.1489008423 -0.4717435322
2.4966595900 -0.1570345781 -0.4825429034
2.7466984733 -0.1627056889 -0.5206142128
2.8079416644 -0.1688873645 -0.5282152950
3.0046803435 -0.1816482610 -0.5549148207
3.0340017434 -0.1825582128 -0.5592129306
2.7815895488 -0.1721571658 -0.5230383187
3.1053472692 -0.1843717063 -0.5696470616
3.3885289727 -0.1961451341 -0.6092514907
3.4329891163 -0.2000789577 -0.6146866174
3.4154242617 -0.1935132738 -0.6141647628
3.4760820242 -0.2051894837 -0.6195025044
3.6987298307 -0.2053324105 -0.6528275277
3.5455553379 -0.2054238106 -0.6298399937
3.6478324681 -0.2141704137 -0.6423576124
3.6851167377 -0.2088583836 -0.6496536124
3.7167682323 -0.2070702075 -0.6549724869
3.8560617977 -0.2167757119 -0.6723402047
3.8768512817 -0.2138111105 -0.6763398960
3.8321049621 -0.2081612213 -0.6715988746
3.7789206661 -0.2180083868 -0.6606392071
3.8165578092 -0.2145080922 -0.6672800704
4.0761107779 -0.2186476274 -0.7039856604
3.8047052388 -0.2192046686 -0.6640332348
4.2917465864 -0.2287922059 -0.7316166336
4.2766874910 -0.2264410124 -0.7302158719
4.3107144299 -0.2322077511 -0.7332349966
4.1165394464 -0.2235914773 -0.7081967659
4.4108522965 -0.2438849818 -0.7438218601
4.3655221138 -0.2431001508 -0.7375823263
4.3911252129 -0.2341933059 -0.7441124895
4.3429745708 -0.2430764788 -0.7343608457
4.1808401534 -0.2369415515 -0.7131134932
4.6237056805 -0.2401969532 -0.7748106957
4.4259251897 -0.2381074249 -0.7478166393
4.5852753367 -0.2532506421 -0.7652383611
4.7174835829 -0.2563985298 -0.7827198309
4.4413344761 -0.2486936141 -0.7465687404
4.7022975767 -0.2585348423 -0.7799087870
4.5599825891 -0.2485784344 -0.7632024421
4.9026196161 -0.2565433312 -0.8080954050
4.8182401079 -0.2477070951 -0.7994138131
4.8472531159 -0.2593806457 -0.7996227241
5.0421246096 -0.2582882410 -0.8265843881
4.9674107899 -0.2600551850 -0.8158138680
5.0936106418 -0.2627629064 -0.8321764401
5.0756915373 -0.2638495135 -0.8293801813
4.8182442766 -0.2648217756 -0.7939121794
4.8827481491 -0.2649909758 -0.8026660384
4.9818729825 -0.2605290336 -0.8176363984
4.9237678250 -0.2635759448 -0.8087223558
4.9522258273 -0.2634277838 -0.8126560396
5.2790551277 -0.2684711103 -0.8550703661
5.1667267820 -0.2671190616 -0.8405397236
5.2174206339 -0.2632891356 -0.8485248688
5.1253864972 -0.2618249244 -0.8367340487
5.2603164388 -0.2726526539 -0.8512295108
5.2035627657 -0.2729305020 -0.8435789894
5.1436550927 -0.2762531797 -0.8345293796
5.4243850531 -0.2770264980 -0.8716819525
5.6638373048 -0.2814962615 -0.9014062372
5.5084532869 -0.2851875269 -0.8800343916
5.6112617282 -0.2796358975 -0.8951745003
5.4412846514 -0.2799951920 -0.8729781384
5.5819333644 -0.2849914429 -0.8896428516
5.6937607716 -0.2891765183 -0.9028243249
5.6407942927 -0.2969179118 -0.8934549519
5.5970798091 -0.2934967747 -0.8888760816
5.7309584861 -0.2923049746 -0.9066507283
5.9062378448 -0.2988819522 -0.9268929946
5.8698567992 -0.2986303805 -0.9223685879
5.9577115297 -0.2943298322 -0.9348722294
5.7876412752 -0.2846901283 -0.9164429879
5.8901466268 -0.2961541767 -0.9257330404
5.8068094004 -0.2952208657 -0.9154838704
6.0388638331 -0.3010853992 -0.9429730257
5.8500920146 -0.3032755727 -0.9183732899
6.0658862559 -0.3135943915 -0.9423721240
6.2448657709 -0.3033288967 -0.9679230462
6.1366653951 -0.2964802868 -0.9567872644
6.3930205972 -0.3065641870 -0.9851455463
6.2972662745 -0.3146444720 -0.9707444557
6.3504764752 -0.3111419450 -0.9784295497
6.4094782089 -0.3270872866 -0.9805762702
6.3788250785 -0.3160572034 -0.9803437987
6.3185673963 -0.3228551123 -0.9707305522
6.5765151146 -0.3249166615 -1.0014898504
6.5081612169 -0.3128857839 -0.9971584261
6.4909797514 -0.3213364764 -0.9923806601
6.5246570649 -0.3163342577 -0.9980284974
6.6028120152 -0.3125143428 -1.0086314408
6.6583053084 -0.3289089082 -1.0100173180
6.7365294120 -0.3284980049 -1.0195325938
6.6760783731 -0.3294197048 -1.0119850248
6.7859053377 -0.3379712167 -1.0224098112
6.6979714789 -0.3278384641 -1.0151195106
6.5053993456 -0.3282495823 -0.9918878373
6.7513751953 -0.3342473837 -1.0194650120
6.8232738110 -0.3234663068 -1.0315275706
0.0471175193 -0.0191685647 -0.0637648885
0.1578745699 -0.0319276889 -0.1053487111
0.3243295658 -0.0415736445 -0.1443492019
0.4145303649 -0.0461664147 -0.1614625123
0.6521077480 -0.0578616534 -0.2016781097
0.7757869969 -0.0657895081 -0.2210827618
0.9842187013 -0.0751341542 -0.2549205303
1.1293791051 -0.0825723545 -0.2778061443
1.2569370418 -0.0857630447 -0.2988199377
1.2715202732 -0.0887720304 -0.3004354991
1.6863407472 -0.1099942714 -0.3644603103
1.9512700064 -0.1214285456 -0.4049538082
2.0033109022 -0.1244536430 -0.4126654638
1.9333818170 -0.1204021637 -0.4022990543
2.2183997421 -0.1344617277 -0.4446916809
2.3963634459 -0.1430305837 -0.4709472537
