7.5000004768 -0.0013052936 0.9502798548
7.5000004768 -0.0005441082 0.7898474611
7.3768206763 0.3037520218 1.0466472284
7.2244618339 0.3024246962 1.0291392916
7.2771204206 0.3071728793 1.0339164931
7.3189852936 0.3084109706 1.0384694084
7.3588951388 0.2948314160 1.0470772833
7.2924323605 0.2792525177 1.0436102691
7.2507205022 0.2876135701 1.0364465875
7.3632453658 0.2803203465 1.0515857907
7.2751729973 0.2720104878 1.0435299149
7.2592707696 0.2650585484 1.0434364126
7.3054864314 0.2448073312 1.0537191651
7.3849665980 0.2471644966 1.0623426038
7.2398151682 0.2341910315 1.0485525369
7.3692659332 0.2308300981 1.0642392314
7.3007639929 0.2296322114 1.0566201929
7.2837046767 0.2244335860 1.0557544154
7.3717784203 0.2172406051 1.0673562677
7.2654760422 0.2178436711 1.0550152699
7.3456226716 0.2152893877 1.0647557942
7.2288060706 0.2196512504 1.0504278035
7.2845422506 0.2088712017 1.0590452900
7.3863670469 0.2058994749 1.0712913333
7.2317786260 0.1811981635 1.0581303756
7.3261350091 0.1917798926 1.0670091635
7.2514690948 0.1997736956 1.0570022796
7.2934370535 0.1746136229 1.0662246627
7.2323284554 0.1582229078 1.0618699987
7.2591809056 0.1599494657 1.0646581169
7.3510374491 0.1613064239 1.0748986543
7.3628891457 0.1530642798 1.0774163857
7.2893359804 0.1562841583 1.0686182993
7.2697448863 0.1471329217 1.0676603010
7.2495464622 0.1370833473 1.0667436721
7.3540176033 0.1402640781 1.0781841663
7.3209062577 0.1328089496 1.0753607894
7.2718643207 0.1275740561 1.0704222449
7.3102121984 0.1170796228 1.0759805931
7.3763741610 0.1130349918 1.0839070536
7.2772136718 0.1077858779 1.0732160442
7.3678195243 0.0972644597 1.0844537752
7.3446261513 0.1082266452 1.0807847707
7.2546273773 0.0952033759 1.0718374943
7.2919174269 0.0945003837 1.0761226620
7.3567704476 0.0865448362 1.0841152540
7.3054208702 0.0802990037 1.0787897518
7.2552158040 0.0810118497 1.0730698575
7.3245872284 0.0661567473 1.0819421163
7.2717001501 0.0620132407 1.0762163333
7.3071384897 0.0599594654 1.0803111622
7.3431560605 0.0607757857 1.0843220828
7.2610462907 0.0439406131 1.0759119803
7.3658810761 0.0445059627 1.0876920728
7.3019941769 0.0412876960 1.0806359099
7.2972539252 0.0259961699 1.0805436326
7.2489952994 0.0285458477 1.0750342812
7.2273838846 0.0332605468 1.0724689950
7.3797926153 0.0232302902 1.0899207300
7.3406269549 0.0077096041 1.0857039924
7.2598973369 0.0166364764 1.0765570032
7.3056121612 -0.0038672089 1.0818221654
7.3497115806 -0.0070445037 1.0867559491
7.2693626572 -0.0173337059 1.0775681714
7.3094324850 -0.0191722313 1.0820536819
7.3240014091 -0.0289090169 1.0835124360
7.2879991728 -0.0270550888 1.0795102959
7.3543296801 -0.0399076525 1.0865389824
7.2532115603 -0.0296790439 1.0755294566
7.2657017431 -0.0335655940 1.0767965492
7.3712614011 -0.0333207690 1.0886761332
7.2676470986 -0.0503189002 1.0763795525
7.2350506329 -0.0343970629 1.0733097361
7.3010262464 -0.0466707783 1.0802818593
7.3634175662 -0.0673130463 1.0862202989
7.2609069609 -0.0681367637 1.0746034270
7.2243447414 -0.0725009962 1.0702151554
7.3028481285 -0.0761073913 1.0788397023
7.3159469848 -0.0803169655 1.0799868447
7.2814657232 -0.0894755402 1.0753562532
7.2568983469 -0.0871913770 1.0727658898
7.3726140710 -0.0933262683 1.0853452052
7.2979262508 -0.0930653824 1.0769233248
7.3162192026 -0.1008382795 1.0783139497
7.2646295293 -0.1077220849 1.0717802933
7.2801298972 -0.1095028847 1.0733512042
7.3297382634 -0.1203658813 1.0778402569
7.3849224042 -0.1252282801 1.0835275169
7.2928570949 -0.1268053852 1.0729079062
7.2468875782 -0.1374703356 1.0663553192
7.2335658119 -0.1371869785 1.0648781729
7.3359623434 -0.1414562172 1.0759687559
7.3161972325 -0.1544010078 1.0719231529
7.3865823838 -0.1533099230 1.0800755065
7.2284243550 -0.1594572119 1.0611838650
7.2463205231 -0.1658885714 1.0622693570
7.2720004677 -0.1619744225 1.0657742440
7.2533649552 -0.1505155301 1.0653494340
7.3786681884 -0.1696357174 1.0767592781
7.2930403605 -0.1751109709 1.0661034910
7.3657428015 -0.1831710235 1.0730358736
7.3287471298 -0.1712601134 1.0708188179
7.2973098773 -0.1885908186 1.0642992530
7.2667026969 -0.1866849831 1.0611259704
7.2355555651 -0.1762222907 1.0593502240
7.3790367823 -0.1997012826 1.0716063819
7.2846941528 -0.2007598892 1.0606087653
7.2991043996 -0.2114769445 1.0601931601
7.2534001259 -0.2040925793 1.0563742958
7.2796933967 -0.2144550040 1.0573880375
7.3298106045 -0.2273507851 1.0604180671
7.3776559796 -0.2263165496 1.0661362464
7.3067638747 -0.2367028957 1.0557467391
7.3462876740 -0.2336718648 1.0609565282
7.2450678159 -0.2255769586 1.0510364681
7.2274273364 -0.2294727951 1.0481624055
7.3595464830 -0.2339711163 1.0624202104
7.2677032862 -0.2373104643 1.0511129383
7.2924432554 -0.2466312165 1.0517874266
7.3757343344 -0.2436321486 1.0621129255
7.2295383602 -0.2527675368 1.0430360558
7.2785057566 -0.2566481679 1.0477818020
7.3614117934 -0.2601702485 1.0565389682
7.3882760989 -0.2783738807 1.0549880256
7.3180669591 -0.2671908495 1.0497345294
7.3726057887 -0.2744416277 1.0541876225
7.2882906585 -0.2827230342 1.0422145684
7.2666113025 -0.2682136078 1.0434900522
7.3317080859 -0.2790022094 1.0482460746
7.3439569196 -0.2978910116 1.0444577371
7.3630777659 -0.2923413169 1.0482587718
7.2740485945 -0.2854499521 1.0398084360
7.2977438507 -0.2938056229 1.0402130087
7.2862320990 -0.3046001739 1.0357836007
7.3314555069 -0.3037804932 1.0413162763
7.3040896154 -0.3081237658 1.0368464787
7.3390509855 -0.3237457181 1.0361654037
7.2728313216 -0.3217629777 1.0289689509
7.2606550464 -0.3270976845 1.0258838580
7.3562466574 -0.3281047157 1.0368456425
7.3363098741 -0.3415718183 1.0300912499
7.3751139786 -0.3350942644 1.0368233581
7.2960170534 -0.3369198464 1.0268586970
7.3744003494 -0.3503933306 1.0316812767
7.2621614328 -0.3439795320 1.0204888540
7.3241642604 -0.3516491932 1.0252862512
7.3441417464 -0.3570882417 1.0257663535
7.3752867232 -0.3686419909 1.0253828643
7.3267592138 -0.3670186225 1.0201646358
7.3044099464 -0.3782271622 1.0133939949
7.3679093801 -0.3798886720 1.0203964820
7.2911161780 -0.3874524920 1.0082787532
7.3447560357 -0.3970449542 1.0110623203
7.3256035297 -0.3961444415 1.0091032991
7.3841757906 -0.4080636712 1.0114088220
7.3354124733 -0.4077469093 1.0056251715
7.2493180815 -0.4033342105 0.9969555939
7.2780855509 -0.4069350306 0.9989879435
7.3729774583 -0.4161401312 1.0067812611
7.2957660018 -0.4173910005 0.9968682783
7.2631131219 -0.4189250849 0.9922321991
7.3853182137 -0.4248034283 1.0046545611
7.3094972829 -0.4253951720 0.9951237258
7.2826314802 -0.4234008790 0.9926947527
7.2717893321 -0.4360047057 0.9859046536
7.2541327298 -0.4356006610 0.9839116231
7.3050994450 -0.4383261178 0.9889886986
7.3028605446 -0.4592287406 0.9791748820
7.3460794715 -0.4583523873 0.9849364835
7.2684593433 -0.4579290613 0.9755064849
7.2832864355 -0.4646721934 0.9741486467
7.2257741774 -0.4600950269 0.9691771459
7.2723174680 -0.4789849829 0.9658242950
7.2552519481 -0.4681241199 0.9689665908
7.3391807879 -0.4949729330 0.9661591447
7.3111635151 -0.4971245520 0.9615111777
7.2854332383 -0.4948849312 0.9594022606
7.2333447860 -0.4869339197 0.9568874717
7.2664596833 -0.4992347137 0.9547657984
7.2357222157 -0.5006924657 0.9501226604
7.3295670901 -0.5052069781 0.9596645280
7.3617026540 -0.5113137392 0.9604896547
7.3003286272 -0.5105176978 0.9530856435
7.2549650289 -0.5039278587 0.9508413782
7.2829827218 -0.5100399382 0.9511261073
7.2356768333 -0.5191273757 0.9401460156
7.3556712681 -0.5270689731 0.9511882333
7.3326403085 -0.5328795660 0.9449371253
7.3194525021 -0.5273327670 0.9463753925
7.3852366795 -0.5325064173 0.9519418815
7.3729992234 -0.5408765686 0.9456205542
7.2490044541 -0.5386255651 0.9308317137
7.2829980991 -0.5411996391 0.9337731589
7.3375835429 -0.5462738035 0.9379377112
7.3437621311 -0.5638509818 0.9282819048
7.2570142334 -0.5506755025 0.9247820165
7.2669172901 -0.5611767772 0.9197908811
7.2354402792 -0.5531501591 0.9204656624
7.3297570516 -0.5652675469 0.9255833582
7.3302805633 -0.5773130381 0.9181522348
7.3784051719 -0.5835015635 0.9206607372
7.3160956681 -0.5698255959 0.9209553325
7.2514505787 -0.5800082208 0.9059633199
7.3812777583 -0.5984963807 0.9113476833
7.3586383739 -0.5986016985 0.9082351880
7.3262340297 -0.5982955073 0.9040741585
7.3053661373 -0.5947147491 0.9036205237
7.3452487994 -0.6035818627 0.9031517868
7.2672416772 -0.5965346003 0.8972723737
7.3337774484 -0.6151955612 0.8936859225
7.3216975225 -0.6092481467 0.8961296506
7.3722490587 -0.6154257966 0.8987755887
7.2453079208 -0.6163523580 0.8807734494
7.3580894701 -0.6241202586 0.8908511218
7.3600099774 -0.6403019513 0.8795380833
7.3812165431 -0.6381934697 0.8839951200
7.3478210937 -0.6442592049 0.8749687013
7.2723412663 -0.6414072054 0.8665318337
7.2567825935 -0.6430046685 0.8631480184
7.3510444898 -0.6571542976 0.8657446917
7.2590967662 -0.6549984335 0.8543828860
7.2294177333 -0.6401377631 0.8614567943
7.3771562618 -0.6670995323 0.8618564574
7.3497004050 -0.6732172605 0.8531148357
7.3847791879 -0.6782946903 0.8541302394
7.3022247227 -0.6672232711 0.8510479155
7.2766880906 -0.6620890669 0.8514433831
7.2685036958 -0.6738676978 0.8409368362
7.2251606521 -0.6657812657 0.8411187303
7.3285479860 -0.6738312899 0.8496015495
7.2466636118 -0.6651839096 0.8446853133
7.3658855410 -0.6847816849 0.8462459145
7.3041192359 -0.6856033769 0.8365879486
7.3472942485 -0.6890242315 0.8400561522
7.2796246396 -0.6950872954 0.8251466242
7.2361286172 -0.6791208845 0.8320243240
7.3608066032 -0.7100824777 0.8243325322
7.3342220619 -0.7087965046 0.8214961873
7.2261854498 -0.7037403028 0.8097793938
7.3482194318 -0.7155730631 0.8177179372
7.3721190486 -0.7214542487 0.8161418191
7.3871337111 -0.7220716990 0.8178471421
7.3576830792 -0.7267807650 0.8091787158
7.2259515381 -0.7259482745 0.7899314768
7.2556950523 -0.7169621997 0.8025953976
7.3047930025 -0.7244592393 0.8032675339
7.3452047600 -0.7362279371 0.7987298030
7.3281262022 -0.7353061418 0.7969692035
7.2978667562 -0.7360918205 0.7915889100
7.3577109521 -0.7485204628 0.7891242568
7.2571278000 -0.7350155946 0.7863090017
7.3095992496 -0.7475094250 0.7826231596
7.2509270390 -0.7471389520 0.7738712967
7.3405493470 -0.7502893599 0.7847934051
7.3858648702 -0.7648382051 0.7777527991
7.3520522431 -0.7609229530 0.7762736060
7.2701122831 -0.7570964350 0.7670995588
7.2859039484 -0.7565774821 0.7701149294
7.2598994195 -0.7719961351 0.7504555053
7.2861921914 -0.7769660258 0.7495809881
7.3593178086 -0.7854610309 0.7526514795
7.2282732959 -0.7711986224 0.7461563340
7.3130472153 -0.7853586888 0.7452363142
7.3760379134 -0.7915330279 0.7490098821
7.2956634685 -0.7849896770 0.7427818413
7.3794852750 -0.8018441028 0.7385107028
7.3104251901 -0.7977800508 0.7314556472
7.2640423503 -0.7871510329 0.7352367354
7.3622371811 -0.8018055282 0.7357001664
7.2435035376 -0.7850373907 0.7341130150
7.2766613401 -0.7980377022 0.7255765240
7.3435507356 -0.8047928938 0.7293209669
7.3183924452 -0.8089455725 0.7204155662
7.2296828722 -0.8059430863 0.7087410343
7.3349224085 -0.8147211825 0.7167136103
7.2920750205 -0.8070654478 0.7180696346
7.3779120255 -0.8267245549 0.7102588848
7.2964301704 -0.8205136809 0.7034296734
7.2230114436 -0.8236537144 0.6869526854
7.2435717195 -0.8208059472 0.6938880145
7.2667328461 -0.8205894681 0.6981759131
7.3870233822 -0.8376123405 0.6990274531
7.2857310830 -0.8311701823 0.6889662349
7.3171855420 -0.8388609670 0.6851347056
7.3821418647 -0.8470069714 0.6866997279
7.2695329332 -0.8329388415 0.6839176359
7.2502321440 -0.8392043352 0.6727501861
7.2371414011 -0.8318019058 0.6795278206
7.3272761658 -0.8510486191 0.6717934439
7.3471446969 -0.8554428044 0.6697928462
7.3746111834 -0.8619819978 0.6664319453
7.2266704331 -0.8484429718 0.6567006439
7.2966918582 -0.8574880977 0.6579146126
7.3750657447 -0.8735451643 0.6512675263
7.2913982286 -0.8647644772 0.6473121848
7.2233326744 -0.8574167009 0.6443463153
7.3547911666 -0.8763070847 0.6437428895
7.2614150915 -0.8640794397 0.6425670712
7.3238145778 -0.8761244969 0.6381143106
7.3681309056 -0.8836288474 0.6362084032
7.3340374267 -0.8848735127 0.6278591637
7.2307191593 -0.8799715236 0.6146469737
7.2960959114 -0.8839661860 0.6217499497
7.3430107977 -0.8932588896 0.6176983008
7.3630420550 -0.8979442095 0.6148129004
7.3733757414 -0.9081659755 0.6017688363
7.3504383946 -0.9113866759 0.5920992067
7.3148017455 -0.9048843803 0.5947631173
7.2916000403 -0.9045280039 0.5905213498
7.2239288535 -0.8979439524 0.5866706409
7.2868897318 -0.9111992728 0.5792072762
7.3263449117 -0.9156728925 0.5804683993
7.3633151592 -0.9208400967 0.5800755639
7.3866407507 -0.9291807412 0.5715733285
7.2430200043 -0.9183215235 0.5583694354
7.2681552717 -0.9232073647 0.5558279578
7.3370939694 -0.9294526065 0.5604810986
7.3664649793 -0.9397120781 0.5496130457
7.3806530168 -0.9355385347 0.5598500082
7.3492590723 -0.9335499452 0.5562723558
7.2235559576 -0.9226283416 0.5469487539
7.2749713703 -0.9345114071 0.5381058012
7.3176051091 -0.9401528122 0.5379459268
7.3439496353 -0.9489361250 0.5283436287
7.2941790189 -0.9450400965 0.5238217170
7.3088266872 -0.9496358447 0.5189517367
7.2784138619 -0.9437987152 0.5223990599
7.2503937005 -0.9420015148 0.5191345355
7.3368842627 -0.9575279169 0.5109231299
7.2938768937 -0.9518771907 0.5112580168
7.3789037957 -0.9644701642 0.5079198460
7.2331655079 -0.9450140519 0.5096286364
7.3162249808 -0.9594924700 0.5022444357
7.2683581800 -0.9555939371 0.4980764790
7.2984447309 -0.9604759649 0.4960817968
7.3315643013 -0.9672923453 0.4908746307
7.2983173545 -0.9681293067 0.4808644070
7.2740418325 -0.9671523745 0.4767032557
7.3084434517 -0.9754193840 0.4685500136
7.2885325445 -0.9722282763 0.4700454420
7.2513951633 -0.9687725734 0.4675930038
7.2358432203 -0.9707169230 0.4593869091
7.3203508328 -0.9822293313 0.4573182162
7.2733127173 -0.9758124062 0.4584886119
7.3516345310 -0.9859698300 0.4576414404
7.3684641669 -0.9907368043 0.4517576533
7.3137924313 -0.9907835823 0.4366305838
7.2446897012 -0.9803495960 0.4408983447
7.3441679457 -0.9952821953 0.4349264257
7.3272571667 -0.9959484354 0.4285691002
7.3858621282 -1.0060809772 0.4215425972
7.2887851811 -0.9989497630 0.4103175129
7.2606361937 -0.9918614459 0.4189849796
7.3212326025 -1.0016018252 0.4134407869
7.3068827838 -1.0014954769 0.4094792934
7.3624362969 -1.0084519804 0.4089103999
7.2819733582 -1.0074598535 0.3868327721
7.3038626372 -1.0109210392 0.3846298397
7.2978935274 -1.0159491513 0.3691670528
7.2256143121 -1.0078385486 0.3676180110
7.3655402372 -1.0237853884 0.3699122670
7.3116013032 -1.0205261228 0.3609540083
7.2508784318 -1.0173510152 0.3492442317
7.3645320276 -1.0299635978 0.3519528235
7.2693623823 -1.0209316039 0.3452612552
7.3827904904 -1.0333476445 0.3484092909
7.3475685366 -1.0303409886 0.3449323758
7.2553126089 -1.0273588245 0.3204154883
7.2974616457 -1.0290059507 0.3308086067
7.2591060939 -1.0230386601 0.3352502095
7.3556473777 -1.0373308314 0.3263337686
7.2810456666 -1.0263431027 0.3330482640
7.3723057130 -1.0425145340 0.3157910150
7.2229330585 -1.0266747761 0.3101025163
7.2435272684 -1.0291212302 0.3100167004
7.3334786485 -1.0445038424 0.2934209542
7.2955000041 -1.0436884802 0.2802750714
7.3513495428 -1.0501017269 0.2806811979
7.2255084006 -1.0369626007 0.2749799708
7.3798269016 -1.0582307120 0.2618828152
7.2538929814 -1.0426925578 0.2655340435
7.3069235146 -1.0516220261 0.2544848586
7.3529631587 -1.0577581592 0.2510427006
7.3386688151 -1.0562258149 0.2505381935
7.3853425892 -1.0632816896 0.2432765211
7.2869870959 -1.0546867453 0.2311884065
7.2262755583 -1.0455692814 0.2404244303
7.3461316602 -1.0604708521 0.2358024610
7.2708013969 -1.0515823481 0.2366106527
7.3500131618 -1.0644585733 0.2191655457
7.3721382883 -1.0648217114 0.2296534698
7.2256043042 -1.0525548887 0.2074650733
7.2723813960 -1.0564433454 0.2147479147
7.3244872050 -1.0621077308 0.2163506885
7.2889840368 -1.0580474708 0.2162389303
7.2511281017 -1.0522441645 0.2233181134
7.3384504658 -1.0657263009 0.2063653208
7.3634250751 -1.0679405777 0.2096589135
7.3215018426 -1.0652108695 0.1986885767
7.3849227925 -1.0736871869 0.1920460951
7.3628994354 -1.0712714868 0.1914947239
7.3209503952 -1.0676698227 0.1848440759
7.3576472968 -1.0729723041 0.1780818067
7.3779948535 -1.0748338831 0.1808846154
7.2954697233 -1.0683244958 0.1629186118
7.2249006127 -1.0579039579 0.1777538217
7.3881501828 -1.0790580182 0.1616975463
7.3035879299 -1.0708729930 0.1517341393
7.3350330760 -1.0735787459 0.1578934612
7.3813213742 -1.0807459608 0.1442272777
7.3510648842 -1.0765706066 0.1495226913
7.2349277892 -1.0623259442 0.1571260347
7.2856901100 -1.0698348699 0.1445040440
7.2446353751 -1.0662328721 0.1367358660
7.3362684546 -1.0766326260 0.1366983791
7.3770885345 -1.0826935321 0.1245396234
7.3581656864 -1.0807161160 0.1231485818
7.2949165550 -1.0728861362 0.1288520897
7.2253781041 -1.0661044898 0.1192891668
7.3701256721 -1.0845818279 0.0986452688
7.3310652475 -1.0801034087 0.0993218031
7.2959972272 -1.0764232638 0.0962292900
7.3837372647 -1.0880265578 0.0747312491
7.2612231725 -1.0732852686 0.0873915894
7.3476739798 -1.0831090139 0.0862893820
7.2850948645 -1.0773638317 0.0681031839
7.2428798252 -1.0717164152 0.0804504378
7.2286496623 -1.0701935256 0.0792638066
7.3161420463 -1.0810090252 0.0658716142
7.3486879554 -1.0844959673 0.0687033818
7.2697495158 -1.0764231164 0.0534890244
7.2350168190 -1.0723057509 0.0575315949
7.3645125931 -1.0877299596 0.0391394053
7.3805593351 -1.0894822179 0.0408671721
7.3271158351 -1.0837155174 0.0328140987
7.3091505067 -1.0815704998 0.0369693688
7.2922981016 -1.0795879028 0.0398855999
7.2512164654 -1.0751569380 0.0331985297
7.3452651351 -1.0859734666 0.0253276563
7.2973587067 -1.0805062619 0.0277880861
7.3765615105 -1.0896356997 0.0191493091
7.3425242876 -1.0859260286 0.0066458843
7.2833837770 -1.0791870690 0.0177935813
7.3583046008 -1.0876235132 0.0158444462
7.2471177408 -1.0751414967 0.0136518025
7.2654458536 -1.0772588893 0.0043408976
7.3093304480 -1.0822125532 0.0027231361
7.3252966263 -1.0840152314 0.0020586453
7.3802245376 -1.0901492115 -0.0097229030
7.3487410157 -1.0866093134 -0.0098154125
7.2480726351 -1.0753199259 -0.0079403681
7.2343229837 -1.0735679524 -0.0205286103
7.3360194962 -1.0850156948 -0.0212687088
7.2773631204 -1.0783497749 -0.0247376509
7.2936527155 -1.0800179922 -0.0313565696
7.2310704132 -1.0728791459 -0.0339188059
7.3211666827 -1.0826110858 -0.0451364631
7.3058559285 -1.0810029838 -0.0420279012
7.2415790622 -1.0733925914 -0.0515740971
7.3392677803 -1.0845403291 -0.0480734680
7.3523321904 -1.0856503384 -0.0554718911
7.3827926055 -1.0882706137 -0.0695967459
7.3385571679 -1.0835890329 -0.0643911271
7.2915834774 -1.0783283305 -0.0637564460
7.3135216066 -1.0805081827 -0.0687038541
7.2690810439 -1.0757020562 -0.0651984781
7.2336585793 -1.0713459805 -0.0711729032
7.3544560200 -1.0839925709 -0.0845575481
7.3745576300 -1.0861780736 -0.0855770727
7.2329477345 -1.0691491116 -0.0983032707
7.3127609081 -1.0791519395 -0.0863241697
7.2903956541 -1.0757280633 -0.0972688533
7.3226405279 -1.0791284774 -0.0999317252
7.3585936668 -1.0828882518 -0.1029369396
7.3801785679 -1.0850154877 -0.1060110997
7.3635730924 -1.0818870953 -0.1183267428
7.2449041503 -1.0698819021 -0.1044859989
7.2862239124 -1.0735300827 -0.1144281631
7.2680506357 -1.0712904008 -0.1161720361
7.3502532508 -1.0800714635 -0.1211586908
7.3093079647 -1.0749115737 -0.1256628930
7.2973423916 -1.0720258272 -0.1379402919
7.2498336843 -1.0672088113 -0.1333498051
7.2542014160 -1.0658096681 -0.1480258972
7.3587483586 -1.0766341971 -0.1552361299
7.3009216650 -1.0695107347 -0.1589888211
7.3272858776 -1.0711782513 -0.1679486867
7.2456551599 -1.0618067525 -0.1684926347
7.3840420594 -1.0750572986 -0.1835519200
7.3629939364 -1.0742804996 -0.1738880178
7.2629665796 -1.0628958526 -0.1738026026
7.2789939277 -1.0630898652 -0.1834067910
7.2303711847 -1.0565280081 -0.1892967207
7.2886645779 -1.0625297696 -0.1930642851
7.3279579080 -1.0647756624 -0.2048873297
7.3868869049 -1.0716508590 -0.2041859956
7.3406371592 -1.0663712054 -0.2041255904
7.2756350949 -1.0583315323 -0.2071703633
7.2438292375 -1.0551508339 -0.2047410111
7.3370085992 -1.0620708567 -0.2234751652
7.3832756801 -1.0664657380 -0.2278010292
7.3566026968 -1.0648742631 -0.2208847289
7.3069623666 -1.0574090282 -0.2291062656
7.2372753591 -1.0491088701 -0.2303469884
7.2309500862 -1.0514497909 -0.2161213661
7.3695528306 -1.0620540304 -0.2408326465
7.3232500396 -1.0564397752 -0.2419905152
7.3079734592 -1.0531303387 -0.2485400525
7.2895065838 -1.0484175738 -0.2593226605
7.2410532985 -1.0452569243 -0.2490522930
7.2731950569 -1.0481963629 -0.2523351155
7.3388421972 -1.0538540621 -0.2604602397
7.3879138377 -1.0581374824 -0.2660566741
7.3730114556 -1.0539614264 -0.2754963646
7.3339984386 -1.0480522163 -0.2807607411
7.2508654467 -1.0398249530 -0.2752045085
7.2359650599 -1.0402861509 -0.2668181626
7.3004651884 -1.0459592190 -0.2738403995
7.2686803786 -1.0398778743 -0.2829227299
7.3206165151 -1.0445141242 -0.2880436369
7.3790160805 -1.0509168504 -0.2895214804
7.3064727167 -1.0432507427 -0.2866688676
7.3663598074 -1.0459126937 -0.3020016322
7.2520824502 -1.0347974468 -0.2940351083
7.2701930174 -1.0353652212 -0.2994811361
7.3878845160 -1.0475100855 -0.3052447783
7.3322591255 -1.0378653525 -0.3156102982
7.2409118433 -1.0258521258 -0.3196684494
7.2584664165 -1.0259354084 -0.3260959799
7.2719535910 -1.0265200732 -0.3293107846
7.3158078330 -1.0302159279 -0.3338470911
7.3612361244 -1.0344826502 -0.3372081604
7.3397908164 -1.0334589965 -0.3326223396
7.3054813964 -1.0239211218 -0.3491188326
7.2794163392 -1.0228898342 -0.3429237475
7.3740539893 -1.0303010250 -0.3543125032
7.3630507703 -1.0264544441 -0.3615060510
7.3491285179 -1.0227878632 -0.3671637849
7.3285805023 -1.0228829688 -0.3599864107
7.2973931995 -1.0170247840 -0.3659726544
7.2375190147 -1.0102443461 -0.3648987483
7.3748324617 -1.0184186326 -0.3872951952
7.2495755308 -1.0050710695 -0.3827370607
7.2675015780 -1.0057992088 -0.3864875021
7.2879825355 -1.0049122966 -0.3952505498
7.3432534174 -1.0080792100 -0.4040306573
7.2248168377 -0.9901664442 -0.4126756380
7.2444712935 -0.9928538475 -0.4119495425
7.2600980984 -0.9949408286 -0.4114941874
7.3500027302 -1.0017695937 -0.4214660372
7.3333638216 -0.9991502464 -0.4228228261
7.3542608658 -0.9955014434 -0.4372281726
7.2834370343 -0.9879194817 -0.4346556395
7.3868452598 -0.9966630395 -0.4436850100
7.3707105494 -0.9962664710 -0.4401040732
7.2351298570 -0.9797641476 -0.4396686437
7.2426212476 -0.9735702097 -0.4551704830
7.2807769908 -0.9809682369 -0.4493663416
7.3674840133 -0.9865350283 -0.4606495596
7.2982040285 -0.9780925942 -0.4603131087
7.3502731839 -0.9803850193 -0.4690702695
7.2828771246 -0.9718794956 -0.4692512503
7.2965258133 -0.9697441961 -0.4771603755
7.2499443917 -0.9665347280 -0.4717584817
7.2254204234 -0.9685539448 -0.4612857178
7.3308107058 -0.9711712967 -0.4830276861
7.2691178149 -0.9637029372 -0.4824595273
7.3735805776 -0.9674208024 -0.5010076216
7.3210688825 -0.9655873007 -0.4916143911
7.3498883172 -0.9702610123 -0.4895800003
7.2602378620 -0.9531478836 -0.5008510346
7.3870979527 -0.9586577217 -0.5207440786
7.3478841382 -0.9609379513 -0.5072020658
7.3095283419 -0.9507959050 -0.5169326248
7.2542032179 -0.9412217190 -0.5215249663
7.3873063802 -0.9512601296 -0.5341820937
7.3135630784 -0.9415610138 -0.5344891836
7.2301944255 -0.9363434545 -0.5246733457
7.2732699515 -0.9347198247 -0.5373247223
7.3772903562 -0.9343489422 -0.5610553216
7.2825190305 -0.9284968195 -0.5500661787
7.2636634969 -0.9264149230 -0.5494077937
7.2321983322 -0.9169055442 -0.5583813831
7.2986652516 -0.9264987295 -0.5569410048
7.3481354070 -0.9201742455 -0.5778643664
7.3247480706 -0.9183247768 -0.5758647176
7.2777974955 -0.9136516334 -0.5733630962
7.2619516069 -0.9146398351 -0.5684400311
7.3057989658 -0.9158653166 -0.5757690325
7.2297579840 -0.9052228096 -0.5765956785
7.3792598674 -0.9191959681 -0.5860170460
7.3659881036 -0.9136513084 -0.5918545345
7.2359395807 -0.8920461833 -0.5980500604
7.2254316789 -0.8977759248 -0.5872205563
7.2755236087 -0.9017573722 -0.5914338288
7.3407229194 -0.8992361282 -0.6085051546
7.3460209133 -0.8890841013 -0.6242843478
7.2738110107 -0.8896303044 -0.6091953365
7.3201579255 -0.8854898404 -0.6243405369
7.3057925761 -0.8823051464 -0.6260394483
7.2472052789 -0.8734547926 -0.6270392935
7.2580371690 -0.8681386293 -0.6364557008
7.3741242429 -0.8737449151 -0.6508552514
7.3582908300 -0.8698125859 -0.6531136024
7.3607124514 -0.8616880283 -0.6642923723
7.3615915853 -0.8524321884 -0.6762397507
7.2282295380 -0.8477175391 -0.6580190897
7.3427092945 -0.8502367056 -0.6755962991
7.2756088258 -0.8392550988 -0.6772753979
7.3113385372 -0.8490553745 -0.6713999923
7.3571629865 -0.8405985554 -0.6901095570
7.3383569898 -0.8306018241 -0.6988757455
7.2774610966 -0.8266311288 -0.6929160015
7.3801878832 -0.8350091271 -0.7009448049
7.2975186693 -0.8285730478 -0.6941146487
7.2629806307 -0.8220188896 -0.6959150131
7.3510742552 -0.8209361799 -0.7123457152
7.3219899204 -0.8184756771 -0.7101880378
7.2455591982 -0.8182412092 -0.6973133754
7.3315170975 -0.8129746475 -0.7181464126
7.3616426742 -0.8106879854 -0.7257708235
7.2649839948 -0.7981800786 -0.7233941220
7.2704464336 -0.7889964311 -0.7343497751
7.3677331728 -0.7966801102 -0.7421388629
7.2892625040 -0.7911002572 -0.7352001825
7.3106914044 -0.7891674338 -0.7407660607
7.3605578807 -0.7861362568 -0.7521500824
7.2484801499 -0.7817360717 -0.7384292731
7.2743165194 -0.7792099272 -0.7453325171
7.3412472842 -0.7823544072 -0.7529649960
7.3669204012 -0.7722803929 -0.7673656485
7.3874367336 -0.7808030937 -0.7619889721
7.2760983498 -0.7675398812 -0.7576103627
7.2455632751 -0.7693773745 -0.7508590410
7.2590294030 -0.7677691657 -0.7546432957
7.2719441537 -0.7587818800 -0.7657903492
7.3859459395 -0.7699387653 -0.7727644076
7.3361584590 -0.7601715399 -0.7745197345
7.3519709470 -0.7636281919 -0.7736353515
7.2877062957 -0.7555347478 -0.7714339035
7.2493176732 -0.7423661881 -0.7781681382
7.3003866603 -0.7532465779 -0.7756432772
7.2623331035 -0.7486271473 -0.7741478595
7.2280364654 -0.7443372565 -0.7729225701
7.3480064600 -0.7441314101 -0.7917723566
7.3028155447 -0.7408378172 -0.7878994009
7.2648393798 -0.7259024452 -0.7959237820
7.2247264193 -0.7279456078 -0.7878684751
7.3818351617 -0.7320382421 -0.8081346858
7.3691289837 -0.7259613824 -0.8116401629
7.2582548253 -0.7093214438 -0.8097313336
7.2737593842 -0.7135677723 -0.8083000358
7.3803203827 -0.7023050617 -0.8338672096
7.3698224375 -0.7113347474 -0.8246113883
7.2454084685 -0.6996995217 -0.8161450255
7.2864602344 -0.6974473280 -0.8241231528
7.3542715543 -0.6853466772 -0.8440681626
7.2559876309 -0.6726550525 -0.8401168543
7.3146419113 -0.6811591495 -0.8417249665
7.2726479671 -0.6776952984 -0.8384426839
7.3609947730 -0.6726401936 -0.8551949052
7.2489386098 -0.6535239124 -0.8540852594
7.2310489602 -0.6558437172 -0.8497327267
7.2917779137 -0.6542017460 -0.8596589845
7.2887750590 -0.6094726582 -0.8914821417
7.2765165193 -0.6123389533 -0.8878662969
7.3693291169 -0.6136414086 -0.8995956018
7.3107055328 -0.6184380372 -0.8883278582
7.2904167990 -0.5957783337 -0.9009519844
7.3196460294 -0.5788621611 -0.9157990299
7.3357565178 -0.5500857730 -0.9354295407
7.3168963917 -0.5485093366 -0.9338977967
7.3034976955 -0.5567871966 -0.9272711337
7.2816853341 -0.5558738691 -0.9249590973
7.3694288039 -0.5395954339 -0.9459215692
7.2708555685 -0.5343243319 -0.9361732149
7.2853797931 -0.4880168355 -0.9629199052
7.3385797066 -0.4311156154 -0.9962510129
7.2560188619 -0.4258287067 -0.9884142437
7.2954403535 -0.4268244372 -0.9928042313
7.3798283370 -0.4156702450 -1.0078144115
7.3477354837 -0.4126378047 -1.0051612636
7.3316282021 -0.3591165056 -1.0235504959
7.2624250045 -0.3593268439 -1.0152404104
7.2706545580 -0.3422473013 -1.0221239012
7.3630627938 -0.3468660305 -1.0315276215
7.2708640660 -0.2925997198 -1.0374294965
7.3724673405 -0.2866218263 -1.0509326401
7.3585502739 -0.2989107912 -1.0459072580
7.3816176193 -0.2302969826 -1.0657762201
7.3130616193 -0.2257300673 -1.0588549962
7.3490783943 -0.2168583361 -1.0648300616
7.3294616652 -0.1485156478 -1.0742600571
7.3765893759 -0.1469992741 -1.0798206765
7.2491103592 -0.1552816123 -1.0641937847
7.3560509543 -0.1517198140 -1.0768286866
7.3202372960 -0.1130707674 -1.0775580962
7.3802951093 -0.0806664398 -1.0872003826
7.3404364819 -0.0779344441 -1.0829103530
7.3699576799 -0.0429567758 -1.0882141527
7.2769162832 -0.0177539380 -1.0784605172
7.2625654643 -0.0157249418 -1.0768644104
7.3420145844 -0.0109163570 -1.0858334321
7.2987343220 -0.0191221664 -1.0808876727
7.3835771540 0.0039706634 -1.0905843957
7.3003419539 0.0614574091 -1.0794546304
7.2272867283 0.0534866231 -1.0716861857
7.2620848405 0.0614561102 -1.0751365482
7.2251719288 0.0688810226 -1.0705253584
7.2420007538 0.0667499471 -1.0725525144
7.3742362231 0.0674256686 -1.0874317143
7.3437245830 0.0539017494 -1.0847712678
7.3748253477 0.0520226461 -1.0883660900
7.3427204606 0.0923573994 -1.0820451029
7.2525411613 0.0806480925 -1.0728087304
7.3173015418 0.0792967097 -1.0802203213
7.2684440493 0.0787395188 -1.0747563433
7.3685781766 0.0825706638 -1.0857419603
7.3492609873 0.0784785068 -1.0838881311
7.2246817782 0.1161886244 -1.0663760129
7.3881874703 0.1187489059 -1.0846314855
7.2912936142 0.1087547001 -1.0746934789
7.3217783865 0.1098419326 -1.0780310869
7.3599113611 0.0970496880 -1.0835941602
7.2428503434 0.1291307415 -1.0669471156
7.3300815370 0.1353610770 -1.0760685336
7.2782744150 0.1286767306 -1.0710259544
7.3632969776 0.1341173685 -1.0799831077
7.2625080689 0.1228180076 -1.0699617306
7.2304766377 0.1575091369 -1.0617062532
7.2497308474 0.1570982468 -1.0639601937
7.2740426380 0.1676760533 -1.0651620782
7.2962876828 0.1603246006 -1.0687850094
7.2866778879 0.1472585568 -1.0696096417
7.2687545133 0.1507485046 -1.0670664098
7.2413770598 0.1454737347 -1.0647197594
7.3397304441 0.1842805132 -1.0698828400
7.3093133060 0.1735572107 -1.0682186770
7.3259241285 0.1763315497 -1.0696460219
7.3455038996 0.2098039527 -1.0658405478
7.2675453982 0.2097530511 -1.0569045824
7.3772663116 0.2061358478 -1.0701790964
7.3849351308 0.1963894417 -1.0729115423
7.3178031794 0.1920007993 -1.0660471362
7.3089165551 0.2273733741 -1.0580082468
7.2407456766 0.2264598568 -1.0503477451
7.3850480274 0.2205309035 -1.0682182545
7.3315117250 0.2176606616 -1.0626779657
7.3179778572 0.2139456697 -1.0618801328
7.3189791682 0.2549279507 -1.0528808266
7.2873550115 0.2437948992 -1.0518691216
7.2608313227 0.2766058064 -1.0406186466
7.2403647425 0.2719861269 -1.0394449232
7.2274519452 0.2810456298 -1.0355679576
7.3726767433 0.2719778179 -1.0548342585
7.2627494358 0.2607925329 -1.0449617149
7.2688029235 0.2992242044 -1.0352756704
7.2496368587 0.2911074550 -1.0353464072
7.3738575823 0.3001918451 -1.0472996589
7.3684712169 0.2855583493 -1.0507836080
7.2730426857 0.3248837149 -1.0280291585
7.3497435357 0.3249973505 -1.0370394724
7.2359818752 0.3201455998 -1.0251232252
7.3133987492 0.3132033461 -1.0363856318
7.2945440241 0.3128494445 -1.0342778641
7.2621525875 0.3400347502 -1.0218022030
7.2341702915 0.3381231680 -1.0191159629
7.3291000664 0.3481481746 -1.0270494986
7.3638078330 0.3409291789 -1.0335580882
7.3420812473 0.3354055911 -1.0328108601
7.3837388575 0.3410033304 -1.0358925870
7.3058330888 0.3389225173 -1.0273590762
7.2647158426 0.3689723855 -1.0120418891
7.3269332418 0.3622924796 -1.0218687302
7.3417622094 0.3590722255 -1.0247790174
7.3630881940 0.3676615337 -1.0242759599
7.2524410586 0.3830384696 -1.0053014671
7.3754755579 0.3895696455 -1.0176330105
7.3416095288 0.3814996449 -1.0166239425
7.3572458294 0.3823910720 -1.0181652759
7.3752081358 0.3764414287 -1.0225611810
7.2570836937 0.4035940292 -0.9977945427
7.3607944116 0.4169275711 -1.0049779177
7.3237006878 0.4112300136 -1.0027872210
7.3733477080 0.4035400378 -1.0119261630
7.2455855946 0.3945188503 -1.0000812078
7.2666334542 0.3953281394 -1.0023047758
7.2814056347 0.4294735785 -0.9899155042
7.2250922286 0.4194364685 -0.9873498353
7.3525068690 0.4303524307 -0.9982531850
7.3873708646 0.4275316084 -1.0037320747
7.2911628981 0.4194325890 -0.9954456164
7.3094027111 0.4240092273 -0.9957083655
7.2580098682 0.4206647881 -0.9908594529
7.2592117995 0.4546728096 -0.9758560281
7.2863282330 0.4471431050 -0.9826781029
7.2272420086 0.4517619528 -0.9732294226
7.3460559586 0.4469616998 -0.9901418288
7.3756780206 0.4408773057 -0.9965344710
7.3241425758 0.4742557525 -0.9746161795
7.2372808740 0.4671715664 -0.9671782786
7.2708760670 0.4619198935 -0.9739288907
7.3450870560 0.4629881391 -0.9826576650
7.3320049932 0.4998726782 -0.9627398176
7.2744076574 0.4954237116 -0.9577291905
7.2303132637 0.4915753336 -0.9541203954
7.2738140927 0.5110626354 -0.9493978130
7.2918162671 0.5196057617 -0.9470795993
7.2594709640 0.5145471431 -0.9456739161
7.3543278786 0.5220512113 -0.9537647541
7.3431455979 0.5105635103 -0.9585250663
7.3283530891 0.5132324058 -0.9552016831
7.3557713810 0.5052600522 -0.9629615564
7.2947781490 0.5322189006 -0.9404187363
7.3305856202 0.5385455817 -0.9414568750
7.2783799714 0.5384792023 -0.9347245883
7.2553013572 0.5270461891 -0.9382471328
7.2354939852 0.5222568371 -0.9384061368
7.3464738267 0.5329062260 -0.9467087794
7.2776449317 0.5522563205 -0.9265446299
7.2298837360 0.5506828707 -0.9212141133
7.3133445364 0.5572628476 -0.9282339653
7.3703621358 0.5578643584 -0.9353430926
7.2968370826 0.5481098358 -0.9315348575
7.2639870998 0.5436097495 -0.9299179004
7.3455273370 0.5459296415 -0.9391701268
7.3160209785 0.5437155438 -0.9366211550
7.2478829566 0.5688045586 -0.9125376927
7.2386349179 0.5771416361 -0.9060609713
7.2341051626 0.5646488632 -0.9133183691
7.3015062566 0.5714832734 -0.9179844371
7.3881677435 0.5817327464 -0.9230612964
7.3787002029 0.5688520087 -0.9298398756
7.2245569479 0.5830148934 -0.9004339066
7.3187600935 0.6018457639 -0.9007217050
7.2551613689 0.5914864368 -0.8989736905
7.2379523975 0.5956575414 -0.8938971721
7.3135487762 0.5905930718 -0.9074298615
7.3641360421 0.5906600366 -0.9141862779
7.2548834888 0.6063472963 -0.8890075361
7.2422353224 0.6129805653 -0.8826853038
7.3128625527 0.6160635936 -0.8902287832
7.2257794726 0.6073545569 -0.8843231546
7.2872098466 0.6182458040 -0.8852043531
7.3291867045 0.6102901717 -0.8964344046
7.3648243892 0.6102118774 -0.9013497410
7.3445351049 0.6138992829 -0.8960452062
7.3816259764 0.6070747117 -0.9057442632
7.2231663414 0.6316543746 -0.8667658134
7.3011169826 0.6384620699 -0.8726789332
7.2768215928 0.6299594486 -0.8754596263
7.2537453620 0.6322312839 -0.8706025627
7.3451526355 0.6398328172 -0.8778128179
7.3181130932 0.6400789424 -0.8738721668
7.3206960566 0.6266206605 -0.8839508438
7.3518910088 0.6250846687 -0.8893278154
7.3273746246 0.6589693888 -0.8610263484
7.3048721943 0.6577706200 -0.8587534677
7.2252025824 0.6540769262 -0.8502888145
7.3534941165 0.6501981793 -0.8713363852
7.3872269718 0.6605492590 -0.8682774264
7.3395497933 0.6525559434 -0.8675950018
7.3155006852 0.6718853565 -0.8492689105
7.2981345382 0.6712011492 -0.8473140784
7.2565456072 0.6612613889 -0.8492128597
7.3376095417 0.6707475051 -0.8533327397
7.3709953476 0.6690419472 -0.8594581462
7.3520910946 0.6637031721 -0.8609187929
7.3655478150 0.6991588810 -0.8343474739
7.2861872734 0.6907035378 -0.8297439583
7.2297263778 0.6882032229 -0.8235526894
7.3078307135 0.6869349748 -0.8360300075
7.2890411178 0.6794814858 -0.8394251605
7.2480555067 0.6979833787 -0.8180325274
7.3265795749 0.7164196001 -0.8137568410
7.2844708950 0.7056271594 -0.8168352468
7.2340756232 0.7024028155 -0.8121157400
7.3616615546 0.7098732888 -0.8246398346
7.3059389106 0.7048133940 -0.8207339326
7.3478039092 0.7121462550 -0.8206228503
7.2365341597 0.7193859247 -0.7974862088
7.3097413210 0.7271692380 -0.8015644943
7.3255988552 0.7301927168 -0.8012360479
7.3773109413 0.7290448914 -0.8101077628
7.3435018863 0.7236519858 -0.8098529834
7.2776435484 0.7464892690 -0.7786311343
7.2341462186 0.7460675762 -0.7722820215
7.2782013620 0.7351501437 -0.7894399150
7.3394051391 0.7452578230 -0.7893704999
7.2612258326 0.7331017661 -0.7887481862
7.2957921943 0.7336801345 -0.7935261556
7.2786545586 0.7576032884 -0.7679519126
7.3761887463 0.7704982586 -0.7706556026
7.2534687841 0.7534872243 -0.7680312202
7.2654018759 0.7619444660 -0.7615593606
7.3801472248 0.7578569889 -0.7837141477
7.3563144795 0.7551197579 -0.7826309214
7.2489977050 0.7705709925 -0.7501616658
7.2718092488 0.7760967413 -0.7481490816
7.3675339460 0.7826959001 -0.7568264558
7.3544541779 0.7719238055 -0.7657651157
7.3759934945 0.8030164988 -0.7366736739
7.2297700475 0.7895295573 -0.7269892101
7.2764729456 0.7963961804 -0.7273210593
7.2949537120 0.8118314948 -0.7131849971
7.3103173877 0.8089266531 -0.7190687359
7.2469691495 0.8019037295 -0.7162303223
7.3587784112 0.8060062599 -0.7305316703
7.3176645002 0.8007065801 -0.7294893987
7.3372583449 0.8018060109 -0.7315522191
7.2952210950 0.8239632469 -0.6991611839
7.2311105373 0.8116824524 -0.7024679430
7.3211060336 0.8196686155 -0.7086925028
7.3753909354 0.8307568713 -0.7050967136
7.3542157201 0.8254603235 -0.7076376435
7.2260826655 0.8365664403 -0.6716824468
7.3080195472 0.8451471007 -0.6757602617
7.3652294142 0.8484128695 -0.6819643983
7.3330740500 0.8365645325 -0.6907718787
7.2985821023 0.8338871856 -0.6879216609
7.2455153348 0.8543634929 -0.6525365061
7.3504290651 0.8621191773 -0.6618226084
7.2615706272 0.8501944063 -0.6608570326
7.2388568930 0.8448291385 -0.6635950462
7.3877167313 0.8600039444 -0.6713598989
7.3690665796 0.8581493875 -0.6703293785
7.2900034123 0.8657245481 -0.6457556221
7.2253565366 0.8577664538 -0.6442575995
7.2647021220 0.8627302261 -0.6450071935
7.3281459665 0.8628281892 -0.6567864049
7.2408363995 0.8731120555 -0.6262987042
7.2582531592 0.8752160756 -0.6267235801
7.3399415317 0.8895768467 -0.6223765430
7.3578772447 0.8880737709 -0.6279850058
7.2940101833 0.8758481378 -0.6327729735
7.2312488038 0.8915247542 -0.5978441696
7.2608886436 0.8927186007 -0.6020399590
7.3072706095 0.8915485978 -0.6130708624
7.3261507117 0.8957787756 -0.6106245632
7.2562155029 0.9011555054 -0.5884028366
7.2400905211 0.9015117137 -0.5844987132
7.2953149846 0.9109531494 -0.5813402007
7.2705567899 0.9110597178 -0.5760285502
7.3665593773 0.9129497673 -0.5930187641
7.3203232723 0.9066293005 -0.5932136382
7.3880031377 0.9131394557 -0.5971544571
7.2476228121 0.9116804384 -0.5701666947
7.3273680994 0.9203126358 -0.5732501509
7.3830984099 0.9291820305 -0.5708141162
7.3805525429 0.9198225179 -0.5853028585
7.2699641765 0.9286669480 -0.5469810647
7.2853507558 0.9361166127 -0.5376776380
7.2565097511 0.9232368892 -0.5532448934
7.3754105169 0.9394609855 -0.5520221786
7.3388176390 0.9304502377 -0.5592022684
7.2442024030 0.9364507451 -0.5276831352
7.3034150223 0.9416950428 -0.5319566248
7.3579187992 0.9501201640 -0.5294427526
7.3241591487 0.9453209612 -0.5302502781
7.3475130605 0.9417918364 -0.5418432880
7.3292739317 0.9599598667 -0.5045088496
7.2909686076 0.9564549453 -0.5019032283
7.3525608186 0.9636328046 -0.5031705665
7.2541005721 0.9514007970 -0.5025802101
7.3694042721 0.9596035938 -0.5148067030
7.3110174217 0.9504366737 -0.5180135491
7.2887975590 0.9654192979 -0.4838849392
7.3584058737 0.9746246287 -0.4830126211
7.2306092206 0.9592483779 -0.4815667316
7.3453940118 0.9742994865 -0.4803853343
7.3860461397 0.9737487771 -0.4916667830
7.3031113230 0.9766633961 -0.4645399786
7.2599129570 0.9717517922 -0.4635405007
7.2452028940 0.9682015458 -0.4671685927
7.3296464205 0.9769345976 -0.4709099981
7.3739620417 0.9833749218 -0.4689714336
7.2365047986 0.9802709918 -0.4388133875
7.2687666204 0.9853855413 -0.4362763834
7.3606411782 0.9904621491 -0.4502252688
7.3442332290 0.9881977803 -0.4507638200
7.2770886684 0.9793697630 -0.4519559724
7.3241207062 0.9978770368 -0.4231166333
7.3655105182 1.0140500114 -0.3957851658
7.2583820822 1.0041851607 -0.3879077327
7.3377727208 1.0050437150 -0.4099758912
7.3521565056 1.0100950338 -0.4016651253
7.2852825980 0.9995861242 -0.4077356622
7.3640261905 1.0063694773 -0.4145141324
7.2579516379 0.9963039813 -0.4076441265
7.3253454025 1.0166631135 -0.3761451785
7.2246789517 1.0020684520 -0.3828946142
7.2919697936 1.0118163055 -0.3784045290
7.2736316550 1.0130713030 -0.3690666154
7.2266081878 1.0080481038 -0.3673746157
7.2773413635 1.0080353533 -0.3838372533
7.3092370934 1.0115162574 -0.3847624857
7.3769892373 1.0187719589 -0.3870983994
7.3486285440 1.0145556241 -0.3892532021
7.2625104226 1.0156518505 -0.3581697293
7.2428835763 1.0189222204 -0.3419429703
7.2575861683 1.0198060618 -0.3444561842
7.3629190821 1.0269110403 -0.3601597699
7.3317636109 1.0228751501 -0.3610995307
7.2900460036 1.0186907452 -0.3588599185
7.3557704506 1.0370843148 -0.3271458849
7.2342221044 1.0217872391 -0.3299821263
7.3521004415 1.0314593644 -0.3431772612
7.2895835124 1.0262913593 -0.3363387281
7.2440726505 1.0277297847 -0.3149079341
7.2636051482 1.0308091600 -0.3122758565
7.2384542634 1.0326323236 -0.2962141102
7.3231036363 1.0391750096 -0.3076667236
7.3411286834 1.0379556825 -0.3187871681
7.2864786962 1.0309626759 -0.3206598067
7.2987205117 1.0419979254 -0.2878185961
7.3174597232 1.0432230025 -0.2912998724
7.3750977080 1.0489010248 -0.2950687181
7.2841478405 1.0377328288 -0.2970780592
7.3173227645 1.0516909293 -0.2590289664
7.3544193189 1.0553460641 -0.2616375564
7.2934748456 1.0453806310 -0.2730804855
7.3690802322 1.0552167850 -0.2688576352
7.3088914971 1.0471148256 -0.2732904756
7.2699200760 1.0504251257 -0.2412476467
7.3001537411 1.0542270162 -0.2398929440
7.2405794947 1.0464527089 -0.2438049980
7.3722638888 1.0609116293 -0.2470167622
7.3311029755 1.0559200239 -0.2480780213
7.2538319060 1.0549283877 -0.2117279786
7.2352223821 1.0500687067 -0.2250087011
7.2311427907 1.0524109063 -0.2112789505
7.2590361511 1.0523016909 -0.2274273146
7.2739403793 1.0539577616 -0.2276906794
7.3129640370 1.0591027327 -0.2244822709
7.3559581855 1.0628183484 -0.2303267361
7.2645314044 1.0612760881 -0.1845213650
7.3327818301 1.0680010714 -0.1905132438
7.2479216270 1.0594174800 -0.1842819736
7.3106950425 1.0623746117 -0.2072462521
7.2280444999 1.0579401635 -0.1797736145
7.2511348028 1.0626900563 -0.1665255642
7.3575437376 1.0751307814 -0.1646484901
7.3214402251 1.0712749015 -0.1629985719
7.2900995365 1.0657097135 -0.1754446196
7.3646584406 1.0735673504 -0.1793332781
7.3112696695 1.0670122373 -0.1822668093
7.3830895381 1.0744456698 -0.1866434718
7.3689856449 1.0796749650 -0.1418327189
7.3447062369 1.0769203532 -0.1417841990
7.2334497893 1.0647688020 -0.1381331226
7.3233431645 1.0740849430 -0.1447382826
7.2257778361 1.0613624714 -0.1565780915
7.3810079063 1.0792670007 -0.1545318417
7.3583348020 1.0771666144 -0.1511576145
7.3728489687 1.0817044425 -0.1288599138
7.2702918594 1.0730610665 -0.1010965221
7.2955944477 1.0766254530 -0.0935696467
7.2370269912 1.0702073069 -0.0913234926
7.3819241716 1.0853262466 -0.1047778471
7.3309426161 1.0791118577 -0.1095626655
7.3124541778 1.0772516067 -0.1071924943
7.2670587713 1.0744010972 -0.0811029028
7.2366732253 1.0715095416 -0.0735086911
7.2848889903 1.0764681259 -0.0803581919
7.3422895225 1.0831708594 -0.0772345411
7.3260205496 1.0808428882 -0.0839323034
7.3500614490 1.0829068230 -0.0921952647
7.3053098681 1.0806598189 -0.0489195566
7.3823073713 1.0890332079 -0.0549018293
7.3399297117 1.0838819023 -0.0622598965
7.3638110726 1.0864633210 -0.0643029155
7.2946862951 1.0787041955 -0.0639178727
7.3015663725 1.0810689306 -0.0245668425
7.2877124123 1.0795753801 -0.0220903234
7.3156774522 1.0826983468 -0.0231489814
7.3796694565 1.0896980602 -0.0303698043
7.3360694976 1.0847591405 -0.0315879800
7.2748208456 1.0776809360 -0.0379539787
7.3652754738 1.0878519029 -0.0379375645
7.3237634386 1.0830491647 -0.0421973947
7.3020245307 1.0813944087 -0.0018282290
7.2287286630 1.0731304967 -0.0028082435
7.3528204975 1.0871227193 -0.0009351851
7.2440097183 1.0747956416 -0.0128808374
7.3888808494 1.0910579623 -0.0160870127
7.3215974560 1.0835456564 -0.0100820254
7.3417853548 1.0857892405 -0.0131450891
7.3440494102 1.0860814061 0.0098586787
7.3251902456 1.0839448860 0.0110993654
7.2747202099 1.0777059430 0.0364118450
7.2316669057 1.0723781304 0.0488616035
7.2415613504 1.0741957929 0.0303436721
7.3495235789 1.0861828848 0.0346965438
7.3783068721 1.0896347520 0.0282105414
7.2242299619 1.0700786960 0.0745628309
7.3155883099 1.0806982895 0.0694244922
7.2597161864 1.0744288951 0.0688066575
7.3436748937 1.0849203320 0.0507487314
7.2342892926 1.0697916623 0.0923040144
7.3138560227 1.0786288323 0.0942301060
7.3473768432 1.0825753472 0.0923102921
7.2692275213 1.0746138233 0.0816410426
7.3020857579 1.0784267127 0.0802847233
7.3829176975 1.0866794708 0.0911490818
7.3537412772 1.0846118906 0.0755349307
7.3128936378 1.0769124294 0.1109487122
7.2698723938 1.0723746240 0.1077178645
7.2521339688 1.0711251527 0.1003415388
7.3633939307 1.0828825407 0.1083534797
7.2332024355 1.0645756521 0.1392614619
7.3855491921 1.0831611099 0.1287769475
7.2998660808 1.0735359046 0.1281496188
7.3175629653 1.0754481838 0.1288933628
7.3393121426 1.0788148898 0.1213296948
7.3040684043 1.0701734299 0.1569351321
7.3752254198 1.0771188022 0.1647605706
7.2836052704 1.0667292093 0.1644502538
7.2401089438 1.0617163053 0.1648461400
7.3794553826 1.0798966419 0.1489753050
7.3622874128 1.0770301443 0.1552772586
7.2867869425 1.0695290652 0.1478976105
7.3114865054 1.0727127966 0.1451564749
7.2789942977 1.0634997760 0.1810033754
7.3033447993 1.0667662370 0.1781590289
7.3365024234 1.0707422570 0.1769825208
7.3201433172 1.0698500266 0.1711905025
7.2546371886 1.0546287672 0.2138685020
7.2946219520 1.0614287098 0.2024135374
7.3737919866 1.0704547902 0.2025991231
7.2371908933 1.0566355431 0.1930978244
7.2778514004 1.0605231389 0.1971124090
7.3066924913 1.0646692425 0.1926113162
7.2663833638 1.0529229318 0.2282202900
7.3032757609 1.0558613826 0.2343086452
7.2421236969 1.0506275384 0.2258993701
7.3345629278 1.0611288929 0.2265775026
7.2281741128 1.0416223804 0.2580268031
7.2299192450 1.0451006877 0.2443046287
7.3786906222 1.0616042867 0.2472345424
7.3433016870 1.0585852648 0.2427106848
7.3247703168 1.0546863953 0.2501654447
7.2867242550 1.0532890167 0.2373767518
7.3147847532 1.0466726310 0.2774841041
7.2351677851 1.0385419497 0.2731225799
7.3420872678 1.0522553960 0.2682245446
7.2844081618 1.0475941878 0.2602882872
7.3156217509 1.0415229797 0.2965554342
7.2258333110 1.0288993404 0.3039254162
7.3616678275 1.0380249874 0.3263583689
7.2890140412 1.0320688599 0.3179087715
7.2378118079 1.0244796080 0.3229257213
7.2512060769 1.0278026548 0.3172859208
7.2656239157 1.0297178592 0.3165907874
7.3652442127 1.0423044937 0.3137746202
7.3358429870 1.0272618339 0.3499142460
7.2900867945 1.0270143163 0.3343234588
7.3211702204 1.0307401482 0.3341815413
7.3833224022 1.0399203937 0.3284775753
7.2761342658 1.0158703174 0.3620876157
7.2950096980 1.0148082506 0.3713731962
7.3668634417 1.0286186258 0.3566854791
7.2972109082 1.0209292921 0.3549474851
7.3470662180 1.0259893863 0.3574426757
7.2656168285 1.0186512769 0.3507140290
7.2580562289 1.0072919921 0.3796045878
7.3388513047 1.0128192059 0.3906367650
7.3562265982 1.0167783061 0.3857238533
7.3196226513 1.0161704285 0.3757223393
7.3445270971 1.0037673332 0.4150418655
7.2559632503 0.9946261232 0.4110320415
7.3635967777 1.0074474476 0.4116885686
7.3255768546 1.0065332732 0.4025547963
7.2830920787 1.0021766980 0.4005920490
7.3657663657 1.0128797979 0.3988788228
7.2931016160 0.9907431390 0.4308779868
7.3228804986 0.9927121924 0.4347725870
7.3689242494 1.0017392482 0.4269178785
7.3016124791 0.9973553286 0.4179300559
7.2729377253 0.9799234216 0.4495247486
7.2296538303 0.9744353414 0.4497882895
7.3718378185 0.9934307882 0.4467336874
7.2977300896 0.9837734549 0.4478350866
7.3502891718 0.9928562851 0.4421344274
7.3237425602 0.9723528104 0.4788081477
7.2804117702 0.9710557211 0.4703103666
7.2963487797 0.9691469847 0.4783431472
7.3628574941 0.9768695047 0.4795972281
7.2640428252 0.9672255134 0.4739705887
7.3118254837 0.9773502866 0.4654180095
7.2549641353 0.9729011664 0.4599354436
7.2508012795 0.9560464754 0.4928779222
7.2716448979 0.9580359702 0.4941447208
7.2361861492 0.9568764594 0.4876562577
7.3310617400 0.9644229391 0.4963619223
7.3100333252 0.9673709066 0.4853884591
7.3523997899 0.9688574754 0.4929526147
7.2502600534 0.9622430120 0.4806528805
