6.6987562409 0.9995531966 -0.1557767026
6.6468378765 0.9927463264 -0.1597141435
6.5889665055 0.9894673160 -0.1366144461
6.5591123868 0.9808259927 -0.1690398324
6.5751592176 0.9825213635 -0.1704291145
6.6991300937 1.0029078664 -0.1341688686
6.7372198055 1.0090192649 -0.1202481213
6.8525065885 1.0225641175 -0.1213200828
6.6465731048 0.9978715019 -0.1237483063
6.8289752141 1.0217679548 -0.1039283122
6.7770754461 1.0127917022 -0.1285586305
6.7619732744 1.0121674322 -0.1183852196
6.6779045705 1.0019583439 -0.1204998271
6.7787023658 1.0152975654 -0.1083804045
6.7218468982 1.0099340530 -0.0963680557
6.6978281000 1.0053748496 -0.1113005635
6.5882203905 0.9926497531 -0.1089506844
6.5705045327 0.9892519779 -0.1202698483
6.6616085974 1.0004633934 -0.1166874225
6.6039085557 0.9942263228 -0.1114224209
6.6436277023 1.0001929889 -0.1004495263
6.7961942549 1.0177955182 -0.1046795814
6.8368095865 1.0247876363 -0.0798197362
6.8521198069 1.0276951596 -0.0647426872
6.8684279973 1.0293052113 -0.0690743627
6.8098513444 1.0219570766 -0.0749776911
6.6888320840 1.0069142716 -0.0852756610
6.7645313896 1.0159153652 -0.0844346096
6.6674162572 1.0042968701 -0.0864863263
6.7504004655 1.0145929773 -0.0796841602
6.6449686357 1.0029546875 -0.0685388663
6.7576588270 1.0171083054 -0.0569457880
6.6317741039 1.0003716444 -0.0825923478
6.8359853607 1.0262105414 -0.0589722970
6.8012744511 1.0217960767 -0.0632954687
6.7183382762 1.0119462145 -0.0640561044
6.8185985559 1.0244804298 -0.0545403464
6.5834342004 0.9966645944 -0.0551432956
6.6876927870 1.0082142094 -0.0656044267
6.6777283717 1.0082732498 -0.0434792957
6.8428691582 1.0277567630 -0.0427438607
6.8047061184 1.0236102526 -0.0315997168
6.8759745076 1.0318443478 -0.0368196051
6.5998168888 0.9988732019 -0.0504351062
6.7566952865 1.0179572912 -0.0314507387
6.7124248931 1.0121462940 -0.0503321036
6.6509836873 1.0049215060 -0.0498391570
6.7318985298 1.0144361004 -0.0504906342
6.7299943937 1.0154380756 -0.0115163630
6.7070927638 1.0127306785 -0.0117910072
6.5687589377 0.9954012553 -0.0444617029
6.6991854004 1.0111798566 -0.0314635955
6.5937914815 0.9992714241 -0.0152137117
6.6546385352 1.0058832714 -0.0329614221
6.6381070736 1.0043944338 -0.0183661144
6.6648972272 1.0076985848 -0.0019031160
6.8507511235 1.0294867347 0.0085537188
6.8463126907 1.0291381122 -0.0090729431
6.8309795174 1.0273300801 -0.0088747404
6.6976929891 1.0114724397 0.0071152437
6.7731860931 1.0203509805 0.0085005940
6.6019071543 1.0002149764 0.0045844473
6.7599459719 1.0186798174 0.0197979463
6.7447878967 1.0168510429 0.0241833464
6.5639160303 0.9958238944 -0.0039007839
6.6569854734 1.0066056354 0.0143953509
6.6792154222 1.0091811164 0.0187425679
6.5879259454 0.9983128268 0.0304268804
6.7003188619 1.0116197272 0.0235129023
6.8180388340 1.0254181614 0.0303571503
6.5762357177 0.9971629181 0.0074446611
6.6181190137 1.0018850837 0.0288214766
6.6005611745 0.9996447581 0.0335782527
6.8013976556 1.0218509194 0.0624499952
6.7821107611 1.0202724430 0.0488688556
6.8383829442 1.0267764118 0.0514561471
6.6859819508 1.0094993721 0.0378640107
6.8386976286 1.0277633344 0.0329268937
6.5660777924 0.9940072565 0.0642173900
6.5647476678 0.9954097710 0.0337973683
6.5589230189 0.9940145247 0.0476146850
6.7393145624 1.0149015199 0.0551827722
6.6482814871 1.0038488142 0.0613565951
6.7834750196 1.0192880421 0.0712114009
6.6040917599 0.9990522954 0.0532587105
6.7226235889 1.0126343176 0.0610098866
6.6165347327 1.0010172386 0.0435546375
6.7956663886 1.0183595246 0.0977268027
6.7332852525 1.0129238823 0.0767900017
6.8439355099 1.0232924790 0.1060952094
6.8178455167 1.0215988976 0.0910923172
6.8344118494 1.0230473578 0.0965992460
6.8146208783 1.0197719754 0.1066650934
6.8719616150 1.0271437273 0.1003200048
6.7159949821 1.0097610914 0.0888296953
6.8055287287 1.0211428297 0.0803094663
6.7156542421 1.0082617577 0.1045485336
6.6214453844 0.9967864736 0.1081188994
6.5593029610 0.9902676686 0.0991556654
6.6824158652 1.0050668796 0.0966099422
6.7656402573 1.0132647176 0.1143507498
6.5994491776 0.9953196602 0.0958898722
6.6690543714 1.0028600683 0.1033573232
6.6516064160 1.0004835131 0.1067256913
6.6260562248 0.9991518543 0.0885113982
6.7871869530 1.0161535893 0.1106863233
6.8771929373 1.0244464604 0.1300290056
6.8296861499 1.0171163027 0.1425323202
6.6945943062 1.0038763155 0.1216318557
6.6799077847 1.0022027245 0.1210984276
6.7279957406 1.0075768611 0.1236296726
6.7557770866 1.0094829780 0.1339907906
6.7062846457 1.0061213798 0.1152789555
6.8593894032 1.0231670087 0.1238191898
6.7703898137 1.0115671327 0.1314110248
6.8382321569 1.0206691073 0.1236962244
6.5798143701 0.9890715390 0.1302703352
6.7406676831 1.0061984993 0.1450436372
6.7215135366 1.0036474804 0.1470823798
6.5979393103 0.9915583171 0.1278004257
6.6693795510 0.9983575266 0.1403561976
6.7062306020 1.0021858315 0.1444492336
6.6359989637 0.9936311273 0.1459927601
6.5664214504 0.9853620940 0.1459925969
6.7775493200 1.0079064215 0.1630613147
6.8303476215 1.0124819366 0.1728889982
6.7489431149 1.0050066038 0.1601134439
6.6149738372 0.9896132495 0.1565474651
6.7133484548 1.0004789650 0.1616384587
6.8403152441 1.0099749158 0.1937837279
6.7918788391 1.0069824327 0.1779615861
6.8512892030 1.0172759344 0.1599596000
6.5666744883 0.9803950521 0.1759828798
6.6096570834 0.9842201063 0.1834177210
6.8052822281 1.0061483345 0.1917284405
6.8231260992 1.0078452281 0.1941995429
6.7734036955 1.0024469595 0.1910972050
6.7352637797 0.9984261356 0.1880399820
6.6713785708 0.9903576455 0.1904512786
6.6711560902 0.9873518098 0.2051377824
6.8189948060 1.0041257751 0.2099344982
6.6519475517 0.9851979654 0.2043982830
6.8739882872 1.0085422503 0.2200053167
6.6314044857 0.9830269399 0.2030053599
6.7527038697 0.9960949271 0.2100989323
6.8006214693 1.0021597437 0.2087991709
6.6866440778 0.9892216707 0.2051286304
6.7290752961 0.9952490840 0.2009915409
6.7889044435 0.9955079468 0.2326100046
6.5762552063 0.9763463320 0.2031399734
6.8618974203 1.0026991609 0.2399355330
6.6678944712 0.9837601571 0.2196745591
6.5751006452 0.9698908916 0.2318480652
6.8076522902 0.9964753896 0.2384893567
6.5874698941 0.9750006683 0.2154034874
6.7583348120 0.9919096408 0.2322082808
6.6124536651 0.9749368404 0.2293883084
6.6968563818 0.9825488181 0.2405059268
6.8533961909 0.9921417138 0.2764284614
6.7317496395 0.9859419025 0.2437560958
6.8622786232 0.9977511577 0.2592642798
6.7967349732 0.9920744545 0.2505171820
6.8320849898 0.9919863204 0.2671760204
6.8325466421 0.9972261152 0.2475244913
6.8505052942 0.9994151718 0.2475188453
6.5957124359 0.9709288041 0.2378503770
6.6671894646 0.9759250138 0.2519173519
6.7417649000 0.9799754858 0.2710005522
6.6708573249 0.9714905470 0.2704226991
6.6880087152 0.9724447072 0.2747258963
6.7627131368 0.9825089334 0.2710698903
6.7961658419 0.9864726887 0.2714913507
6.5722189338 0.9600085942 0.2684007391
6.6108480388 0.9685934604 0.2536935474
6.7306873012 0.9764868716 0.2791106146
6.6270225185 0.9651112585 0.2743643198
6.6343733593 0.9694533736 0.2612975281
6.7268769474 0.9810324692 0.2601181553
7.0768917439 0.2632880230 1.0223150314
7.1486165241 0.2453286483 1.0351452395
7.0970593481 0.2452540717 1.0290744952
7.1137458376 0.2506723856 1.0297298713
7.0159549266 0.2509080368 1.0181236651
7.2050567344 0.2548547717 1.0394983285
6.9779338652 0.2659957078 1.0099709284
7.0999371734 0.2609493182 1.0256043861
7.1453693857 0.2310079740 1.0382380701
6.9736624985 0.2400675693 1.0157604918
6.9078891940 0.2557533201 1.0041850482
6.9196704017 0.2346360321 1.0107025907
7.1083453963 0.2314708023 1.0337532315
6.9302958167 0.2442633768 1.0096204127
6.9601312959 0.2538876495 1.0108076655
7.0886272628 0.2330339241 1.0310450982
7.0424867099 0.2358306069 1.0249170642
7.1263763279 0.2395740441 1.0339156101
7.0290004048 0.2402336537 1.0222555138
6.9381865885 0.2313555836 1.0136856545
7.1692124597 0.2050158639 1.0462761917
6.9222125002 0.2210191736 1.0141803373
7.0225769190 0.2249203121 1.0251476363
7.0677179104 0.2144469191 1.0325184469
7.0063309938 0.2218059471 1.0238674088
7.1719046610 0.2281117831 1.0419863469
7.1183215574 0.2019751051 1.0409269713
6.9474045268 0.2191174378 1.0175075970
7.1876120059 0.2288822076 1.0436708855
6.9520488553 0.1883320710 1.0241891112
6.9282335389 0.1843352651 1.0221990160
6.9122667013 0.1954334083 1.0181177442
6.9648792897 0.1970207414 1.0239582357
7.0720716175 0.1934048798 1.0372233248
7.1326634630 0.1911009339 1.0447734332
6.9058639676 0.2090836290 1.0146468742
7.0136009510 0.1805819688 1.0328032005
7.1272977317 0.1644975542 1.0485319282
7.1501292802 0.1849590379 1.0479772493
7.0851367987 0.1817184137 1.0409351812
7.1375565383 0.1744965769 1.0481565050
7.2076121415 0.1843058619 1.0547572274
7.1554748899 0.1675628930 1.0513247474
7.1764862120 0.1693295616 1.0534886756
7.0331791954 0.1815756475 1.0349218040
7.1815973325 0.1829399150 1.0519492542
7.1176617179 0.1816558266 1.0447233093
7.1995063550 0.1498017048 1.0592234745
7.0332159792 0.1468001268 1.0403765076
7.0444476917 0.1603921351 1.0395509471
6.9484109497 0.1469472089 1.0305019346
6.8902591389 0.1788936846 1.0187395747
6.9434537568 0.1735052340 1.0257635641
7.1069452611 0.1471199580 1.0488912670
6.9334566025 0.1622783035 1.0263618543
7.0899732948 0.1568368333 1.0453967381
6.9736190856 0.1481894486 1.0332355811
7.1889755276 0.1118727211 1.0626082961
7.1710789876 0.1076300846 1.0610272731
7.1418366502 0.1412319153 1.0537974884
7.1731386684 0.1312888102 1.0585531921
7.0393778039 0.1307301024 1.0431655564
7.2048776196 0.1147418539 1.0641163714
7.1250564581 0.1310816351 1.0530226184
7.1372781537 0.1183196682 1.0558973440
7.0922462950 0.1324637390 1.0490740490
6.9370240893 0.1304126718 1.0313783235
6.8954283637 0.1240784076 1.0272993712
7.0917134562 0.1134882040 1.0511876691
6.9393008819 0.1047666046 1.0345810844
7.0044212768 0.1146605285 1.0409695123
6.9179700826 0.1312977282 1.0290757999
6.8962257809 0.1017050643 1.0299560933
7.1149730083 0.1009252261 1.0553146209
7.0433924915 0.1107149470 1.0459236435
6.9206294479 0.0976292914 1.0332423411
7.1357072833 0.1042563289 1.0573279560
7.0951972132 0.1005463221 1.0530736031
7.1029628893 0.0801213991 1.0555323889
7.0195791263 0.0892708860 1.0452701820
7.0730348207 0.0922226818 1.0512061222
7.1795780480 0.0935541537 1.0633690359
7.1456705491 0.0646850802 1.0615724022
7.0556039898 0.0958635388 1.0489348537
7.0349064282 0.0872060448 1.0471844732
7.1603247145 0.0955595841 1.0610073057
7.0898557902 0.0632546460 1.0552540838
6.9072704787 0.0865514121 1.0325450672
7.0756379363 0.0607213861 1.0538027607
7.0270698654 0.0583364572 1.0483879279
6.9012870770 0.0714385747 1.0329586168
6.9351085533 0.0621857907 1.0375252012
7.0545450848 0.0560112495 1.0517190717
6.9314453938 0.0823248140 1.0356350973
7.0414391578 0.0686400652 1.0492900459
7.0113938477 0.0564881827 1.0467188627
7.1606139561 0.0601768930 1.0636206907
6.9932618132 0.0451613555 1.0450709000
7.0644519892 0.0337185753 1.0536051865
7.1403336317 0.0232733697 1.0626467692
7.1515250367 0.0329486225 1.0636273549
7.0373860999 0.0480810771 1.0500454879
7.1855026868 0.0438284603 1.0671864102
7.1739553563 0.0342918978 1.0661605922
7.1102385890 0.0420938299 1.0585989829
7.2020596014 0.0266510926 1.0696280143
7.0987750444 0.0280088585 1.0577259045
7.0021029169 0.0305237750 1.0465466434
6.9286210956 0.0424816246 1.0377330163
7.0281615327 0.0217784909 1.0498139371
6.9351015180 0.0254285750 1.0390137090
7.1779577809 0.0135037442 1.0672742760
6.8872465300 0.0240154664 1.0335633499
7.1419725127 -0.0088689800 1.0630054382
7.1186251406 0.0006268202 1.0604196316
6.9962954586 0.0111288888 1.0464834467
7.0493020674 0.0085129051 1.0525412380
7.1272844007 -0.0173818109 1.0612355764
7.1583995464 -0.0136325872 1.0648437337
7.1908724039 -0.0047910053 1.0686580193
7.0307408382 0.0021525645 1.0503481163
7.1842635512 -0.0169566913 1.0677793411
6.9815085340 -0.0002489997 1.0446739432
7.0944004722 0.0060500897 1.0576929083
7.0780492175 -0.0093237184 1.0556643932
6.9095757730 -0.0076928979 1.0363445525
6.9384226188 -0.0058595722 1.0396734681
6.9279239407 -0.0214491900 1.0383144718
6.9731108304 -0.0119029627 1.0435949747
7.0574140581 -0.0275783004 1.0531157020
6.9678738548 -0.0299083543 1.0428160015
6.9550426164 -0.0106626548 1.0415335119
6.8937668076 -0.0073881917 1.0345331424
6.9045891761 -0.0252497323 1.0355987481
6.9485756026 -0.0329681891 1.0405224707
7.1005093110 -0.0579544572 1.0567013598
7.0167189270 -0.0425825040 1.0478604336
7.0597330422 -0.0511064232 1.0523665254
7.0769958002 -0.0510258026 1.0543544379
7.1770683607 -0.0699575309 1.0648839788
7.1519385319 -0.0523789802 1.0628972456
7.1837770908 -0.0505300821 1.0666508062
7.2062576028 -0.0423219638 1.0696549543
7.1951688793 -0.0594131690 1.0675045520
7.1598910253 -0.0719950130 1.0628055741
7.0006891995 -0.0479554268 1.0457429252
7.1162020063 -0.0732436140 1.0577209813
7.0214986342 -0.0594004524 1.0475476008
6.9519284781 -0.0644683727 1.0392930598
6.9155490054 -0.0471304676 1.0360011987
6.8943715133 -0.0610776077 1.0328526249
6.9813934169 -0.0606847098 1.0428730182
7.1031391194 -0.0832097501 1.0554113218
7.0775335513 -0.0885798294 1.0519615966
7.0178154255 -0.0812403923 1.0457597802
7.0653354359 -0.0836637009 1.0510119656
7.1530066284 -0.0999769392 1.0596026836
7.2002625235 -0.1159398004 1.0635676904
7.1187547098 -0.0930449479 1.0562982616
7.1928044496 -0.0795014310 1.0660902770
6.9843713858 -0.0773353901 1.0422675095
7.0342955698 -0.0792687204 1.0478422776
6.9531880501 -0.0801539983 1.0384117222
7.1403454359 -0.1193872405 1.0563416956
6.9141831623 -0.1032262451 1.0317744586
6.9130778650 -0.0840498231 1.0334270392
6.9897283237 -0.0932204370 1.0414104954
7.1009364783 -0.1172757282 1.0519954373
6.9452819708 -0.0989810250 1.0357529333
6.8913120253 -0.1040611788 1.0290608466
6.9299906734 -0.0886926678 1.0349454447
7.1147374147 -0.1346311646 1.0513530757
7.1647494865 -0.1292112029 1.0578746490
7.0698530926 -0.1418521481 1.0451827162
7.1648131667 -0.1522594385 1.0547774940
6.9228638765 -0.1201119814 1.0310893413
6.9429978460 -0.1209160194 1.0333126027
7.2039196405 -0.1539606788 1.0590769673
7.0370687982 -0.1319913051 1.0427144410
7.0714865189 -0.1244304797 1.0477185183
7.0212185824 -0.1451698462 1.0391038472
6.9755675882 -0.1348673115 1.0352050666
6.9241748827 -0.1443511287 1.0279762458
7.0097573752 -0.1579502534 1.0360551472
7.0452357597 -0.1553466475 1.0405143188
6.9123543406 -0.1334372301 1.0280774559
6.8954233624 -0.1501840499 1.0238610853
6.9569199160 -0.1299063974 1.0337138381
6.9860710301 -0.1494338326 1.0344593406
7.0694776167 -0.1842681517 1.0384999974
7.0783118627 -0.1744036649 1.0412760982
6.9885765407 -0.1655348386 1.0323875762
6.9186691543 -0.1640329803 1.0245057234
7.1197543023 -0.1921647069 1.0429617267
7.0009092905 -0.1725202530 1.0325882292
7.2059324193 -0.2048782039 1.0507549722
6.8919394010 -0.1849741627 1.0176828392
6.9084046445 -0.1843086945 1.0197196882
6.9339141227 -0.1727017735 1.0247477696
6.9824612990 -0.1801171888 1.0290931073
7.0710446946 -0.2037765804 1.0352287795
6.9276170332 -0.1982873530 1.0194840577
6.9453971975 -0.1883326797 1.0233187629
6.9027391569 -0.1995440584 1.0163620373
7.0217379959 -0.2181872446 1.0263328986
7.0099001497 -0.2062938911 1.0275585118
7.1663816388 -0.2394173873 1.0386591521
7.1944254544 -0.2417904383 1.0414324945
7.1464628989 -0.2074534790 1.0433509451
7.1359215817 -0.2278362379 1.0376277713
7.1165418118 -0.2225956750 1.0365034333
7.1807645246 -0.2460791400 1.0388836245
7.0851208426 -0.2188884972 1.0336267643
7.1231849690 -0.2096655149 1.0401288687
7.0558890819 -0.2066005197 1.0328952321
7.0029694758 -0.2378101878 1.0198100741
7.0342860170 -0.2461831599 1.0216479323
6.9560753494 -0.2347564858 1.0149713654
6.9727259450 -0.2203190800 1.0201044271
7.0555194355 -0.2433272755 1.0247714242
6.9307050382 -0.2284355944 1.0133807664
7.0927178288 -0.2737838401 1.0213376820
7.1856029855 -0.2785654160 1.0311010879
6.9185938962 -0.2451362010 1.0082271968
7.2046296053 -0.2838089013 1.0319762850
7.0883755107 -0.2572251059 1.0251900591
7.1350795172 -0.2700475196 1.0273511939
7.1659147387 -0.2558941224 1.0347443737
7.0495485387 -0.2592237337 1.0200544465
6.9456023432 -0.2471450427 1.0109029843
7.1064224469 -0.2570085134 1.0273892058
7.1103986731 -0.2769994142 1.0225880585
7.2029518229 -0.2647795959 1.0367965932
7.1678851978 -0.2902314189 1.0259209467
7.1258389485 -0.2843672969 1.0224772276
6.8990281081 -0.2478504228 1.0051889661
6.9570027861 -0.2719987080 1.0057003653
6.9696051229 -0.2835664786 1.0041448764
6.9788229919 -0.2682592552 1.0092766025
7.0240236658 -0.2876336052 1.0095310788
6.9345694836 -0.2560046933 1.0072565323
7.0568272332 -0.2720457468 1.0175362449
7.0783951060 -0.2765662367 1.0189037752
7.0632160730 -0.2844648339 1.0150187133
6.9551160432 -0.2902578994 1.0004911394
7.1299983657 -0.3230143542 1.0113896210
7.0187076914 -0.3010919191 1.0047863781
6.9268331324 -0.2869246380 0.9981225917
7.1106785573 -0.3092763582 1.0133074484
7.1815739507 -0.3042395588 1.0233760649
7.1410810826 -0.3136500745 1.0156095861
7.1793210103 -0.3294137420 1.0153392001
7.2037723215 -0.3316336677 1.0175910269
7.1319521178 -0.2987802540 1.0191005351
7.1566287717 -0.3219038387 1.0149306107
7.0704627390 -0.3115992173 1.0077607987
7.0414875720 -0.2973861574 1.0086655458
6.9606213329 -0.3185379880 0.9924278871
6.8998546646 -0.3149841773 0.9862259806
6.9777839642 -0.3211115299 0.9936952297
7.0540034933 -0.3279461184 1.0007409467
6.9447533270 -0.3124556140 0.9923985134
6.9260435999 -0.3231632889 0.9868480825
6.9644523737 -0.3049285063 0.9970865543
6.8843439764 -0.2909638403 0.9917734130
7.0417765889 -0.3405732651 0.9949265757
7.0975312200 -0.3369328446 1.0030053232
7.2054377133 -0.3566010376 1.0091738787
7.1660313860 -0.3590923963 1.0034928970
7.1707450519 -0.3471815533 1.0082878254
7.1335712297 -0.3440968723 1.0048547234
7.1188637952 -0.3588884553 0.9978220765
6.9113026025 -0.3266088231 0.9839889075
7.0588655311 -0.3543761085 0.9921158259
6.9829777368 -0.3589999503 0.9812371670
6.9656685463 -0.3547182521 0.9806469714
7.1315443025 -0.3724850141 0.9945476610
7.1528754021 -0.3707139725 0.9977725486
7.0812492059 -0.3707683182 0.9890321301
7.0422000375 -0.3603943276 0.9879538927
6.9743879194 -0.3732421922 0.9749436051
7.1739645285 -0.3984708698 0.9894938820
6.9548664044 -0.3743310201 0.9720919508
7.0069439835 -0.3711764733 0.9797996729
7.1620149358 -0.4103650858 0.9832389200
7.1459363350 -0.4038536735 0.9838655615
7.0604945015 -0.3834236358 0.9815037647
7.0282162134 -0.3772174217 0.9800043127
7.1571028004 -0.3904096698 0.9906461114
7.2047007045 -0.3866295541 0.9980510517
7.0948416346 -0.4098451720 0.9751399904
7.0205755711 -0.4104331379 0.9657188958
7.0540620701 -0.4040756147 0.9724137576
6.9348345519 -0.3852793557 0.9652172985
7.0776262861 -0.4032214104 0.9756711666
6.9493160349 -0.4059899806 0.9586902909
7.0071534145 -0.4069647128 0.9654519197
6.9646079730 -0.4066438741 0.9603189170
7.0126048898 -0.3901538437 0.9728778993
6.8879877460 -0.4021198405 0.9526598043
6.9781017841 -0.4058642387 0.9623009067
6.9512186990 -0.3909281393 0.9649749036
6.9220642771 -0.4103252255 0.9534012157
7.1712564757 -0.4288664795 0.9764154215
7.1509666724 -0.4361275063 0.9705905844
7.0892007941 -0.4219294562 0.9692117785
7.1500391406 -0.4192724181 0.9780666042
7.0052487113 -0.4228822762 0.9582152645
7.1789326514 -0.4519797172 0.9669697427
6.9904171157 -0.4169476991 0.9590217381
7.1045156580 -0.4322041984 0.9665110059
7.1195928595 -0.4291047981 0.9698050151
7.2053456135 -0.4373238149 0.9768965152
7.0789326107 -0.4377279824 0.9608024746
7.0442249181 -0.4346298897 0.9578293233
7.1265786624 -0.4496102112 0.9614471909
7.1545294709 -0.4570992929 0.9615918063
7.0904383471 -0.4522858201 0.9556928081
6.9289777922 -0.4446666950 0.9388014999
6.9178099574 -0.4298760252 0.9440585840
6.9083097032 -0.4168861193 0.9487143741
6.9762422733 -0.4228684911 0.9545703481
6.9368164968 -0.4207753485 0.9505506132
7.0178928176 -0.4543611438 0.9454324029
7.1632513565 -0.4790204517 0.9517338285
7.0965679867 -0.4689526970 0.9482192179
7.1253658706 -0.4748965409 0.9489371716
7.1207485218 -0.4613551714 0.9551310231
7.1998815084 -0.4643117873 0.9638077460
7.0437183943 -0.4663846754 0.9427218080
7.1377442090 -0.4631200922 0.9564282692
7.2032118877 -0.4888586350 0.9519330153
6.9755432899 -0.4591121436 0.9376148045
6.9504656671 -0.4655600965 0.9311640063
7.0021616934 -0.4795580822 0.9307849369
6.9110624674 -0.4820760954 0.9178283875
7.1167028200 -0.4850174871 0.9427527150
7.0230857680 -0.4686107587 0.9389574908
6.8934985856 -0.4819389216 0.9156424239
7.0858442030 -0.4870120213 0.9377917277
7.0063136908 -0.4690812521 0.9365686272
7.0647805705 -0.4842831015 0.9364554036
7.1305947205 -0.4897342715 0.9421721279
6.9407457672 -0.4902521182 0.9172726685
7.1910624054 -0.5295085165 0.9283659343
7.0526906954 -0.5039451995 0.9243738277
7.1416906977 -0.5174494020 0.9285692237
7.1317575937 -0.5072202077 0.9329331083
7.2091549712 -0.5331704975 0.9287109128
7.1166073078 -0.5167040865 0.9256911651
7.1497114628 -0.5051088906 0.9364583799
6.9658208827 -0.5181648607 0.9050984546
6.9788108832 -0.5088513583 0.9119625961
6.9487479675 -0.5196994128 0.9020082931
6.9217595063 -0.4991175110 0.9098700710
6.9480506379 -0.5062536168 0.9093659921
7.0116180058 -0.5049177309 0.9184462384
6.9158807034 -0.5139141872 0.9009011628
6.9946511565 -0.5221534088 0.9066713136
6.9039797085 -0.4947954206 0.9099318406
7.1350079441 -0.5275061983 0.9221208237
7.0219143587 -0.5189721463 0.9120107620
7.0952581224 -0.5376946802 0.9109288457
7.1846222236 -0.5695576666 0.9035234125
7.1182514932 -0.5361525082 0.9149587087
7.1607388945 -0.5641723226 0.9035951542
7.1585017358 -0.5402569880 0.9178670529
7.0083511695 -0.5275690649 0.9054190645
7.1624056037 -0.5526974617 0.9108112349
7.1938935945 -0.5459966406 0.9191260871
7.2061475550 -0.5660564628 0.9085496962
7.1431156741 -0.5445692616 0.9131716296
6.9971046278 -0.5379811696 0.8975630972
6.9297382706 -0.5228958040 0.8977016143
7.0137228362 -0.5409972771 0.8979586408
6.8890953032 -0.5364434632 0.8839843549
6.8885069503 -0.5220558417 0.8926722214
6.9152046265 -0.5287145937 0.8922027728
7.1162505291 -0.5600161656 0.9001487234
6.9680224128 -0.5516587420 0.8853203660
6.9857193169 -0.5472206884 0.8904029893
6.9033655910 -0.5376202699 0.8851851114
6.9574390925 -0.5417017434 0.8899652253
6.9050531423 -0.5507936854 0.8773848327
6.9871287133 -0.5620601281 0.8815501551
7.1397735083 -0.5783091388 0.8917835715
7.1964484455 -0.5993583083 0.8855531016
6.9692001850 -0.5699086548 0.8738543939
7.1068703460 -0.5931205037 0.8773564754
7.0488271588 -0.5785997623 0.8790402700
7.1542752620 -0.5771164113 0.8945807805
7.1030285484 -0.5783237866 0.8867035116
7.1365119583 -0.5981720941 0.8780745435
7.1224701311 -0.5878682914 0.8830149967
7.0926407539 -0.5902026180 0.8773407498
7.1481090709 -0.5921842699 0.8836717909
7.1594267426 -0.6034001466 0.8777466125
7.0240234284 -0.5671591228 0.8832545982
6.9233524897 -0.5659123048 0.8701957235
7.1777599152 -0.6099763422 0.8758865714
6.9371756239 -0.5733860165 0.8671142520
6.8909308086 -0.5605897436 0.8692749251
6.9067241695 -0.5921508196 0.8503864797
7.0035829296 -0.5946062297 0.8621125486
7.0350880390 -0.5834132479 0.8739313555
7.0580486868 -0.5929065864 0.8707625841
6.9073241321 -0.5756264508 0.8614996394
7.2076698181 -0.6158947783 0.8758718227
6.9366473207 -0.5984837494 0.8500727414
7.1336438492 -0.6283169460 0.8563024436
7.1243185943 -0.6082226959 0.8696269098
7.1717828522 -0.6371525039 0.8552779235
7.0967229049 -0.6184043281 0.8582851440
7.1027267994 -0.6065355122 0.8677903144
7.0715100547 -0.6052380560 0.8643026244
7.0502227906 -0.6143623537 0.8546276165
7.0999580771 -0.6387556946 0.8439082807
7.0269564157 -0.6227168120 0.8452327356
7.0450091524 -0.6294370013 0.8428975870
6.9931330110 -0.6114632868 0.8486329048
6.9035582700 -0.6243776093 0.8264963846
6.9146820255 -0.6013946213 0.8448310702
6.9449200328 -0.6160152121 0.8384670597
7.0687330354 -0.6290736863 0.8465318301
7.0014177279 -0.6234905267 0.8410415593
6.8876695837 -0.5987845639 0.8428973888
7.0447487097 -0.6455334739 0.8305833828
7.1879193971 -0.6685226503 0.8333064723
6.9184519215 -0.6313047150 0.8233748292
7.1870539335 -0.6473675168 0.8499836304
7.1325792303 -0.6560634249 0.8350921472
7.0231314512 -0.6419085640 0.8302943821
7.0833302063 -0.6469615779 0.8351037326
7.1713468049 -0.6504011459 0.8452718227
7.0640529908 -0.6421024465 0.8361380723
6.9194068283 -0.6489692067 0.8094835179
7.1754331619 -0.6789598487 0.8231859170
7.1398243247 -0.6714647444 0.8239204110
6.9058653798 -0.6565485023 0.8014784227
7.0141062651 -0.6534735569 0.8197852722
6.9905281337 -0.6467578254 0.8216639786
6.9445315294 -0.6573898121 0.8064772690
6.9076390386 -0.6407483748 0.8142887424
7.1747480078 -0.7008893959 0.8042649966
7.1699919991 -0.6895947485 0.8133029955
7.1215580428 -0.6958347801 0.8005650174
7.1593688901 -0.7004905709 0.8022770015
6.9217596003 -0.6629204055 0.7987011565
7.0979939341 -0.6761578772 0.8139931735
7.1438902348 -0.6904868090 0.8085732422
7.0822692005 -0.6781116380 0.8099199600
7.1162182556 -0.6816554536 0.8120070357
6.9577740829 -0.6810782224 0.7884740010
6.9048172121 -0.6756519013 0.7851305601
6.9733257087 -0.6964253256 0.7775718255
7.0964534585 -0.7027601389 0.7907733282
6.9271331074 -0.6920098559 0.7743809003
7.0131900071 -0.6986259099 0.7817167271
6.9858377744 -0.7005061853 0.7758796950
7.0314159269 -0.7077885100 0.7762170445
7.1022673403 -0.7216247011 0.7743791716
7.1742998762 -0.7156033065 0.7913731819
7.1754446369 -0.7399874775 0.7686570728
7.1483114940 -0.7317303873 0.7721387941
7.1829707810 -0.7314902832 0.7778206304
7.1241423148 -0.7273989871 0.7724009727
6.9752890546 -0.7275030379 0.7488693378
7.1418641992 -0.7431005703 0.7604473640
6.8863005985 -0.7164686713 0.7452210240
7.0316682301 -0.7311362576 0.7543335603
6.9160247995 -0.7053225575 0.7603665687
7.0239414205 -0.7197791313 0.7637813319
6.8954562635 -0.6979898263 0.7640138099
6.9700093920 -0.7118276236 0.7627571834
7.0898110347 -0.7319863590 0.7626887450
6.9877153309 -0.7235208433 0.7545648381
7.1083623953 -0.7325401938 0.7650892408
7.1994774534 -0.7604796534 0.7522130089
7.1093719111 -0.7505977502 0.7475210528
7.0975057710 -0.7427752974 0.7535544089
7.0599687571 -0.7422795889 0.7479065291
6.9411863317 -0.7328875508 0.7380138986
7.0015687202 -0.7341948669 0.7465790381
7.1577614010 -0.7633854028 0.7424107055
6.9604258740 -0.7303038395 0.7438031379
6.9672183489 -0.7508860473 0.7239235982
7.1068371929 -0.7648903655 0.7325276410
6.9266347755 -0.7427600838 0.7255588451
7.0019585977 -0.7606842753 0.7196248029
7.1227731567 -0.7720281773 0.7278597553
6.9147362126 -0.7507722840 0.7154361668
6.9499486545 -0.7490226830 0.7229931133
7.0324353238 -0.7534509838 0.7319985675
7.1409696397 -0.7700343052 0.7328764004
7.1222806837 -0.7820698781 0.7167211731
6.9316863058 -0.7581922823 0.7105307113
7.1736459445 -0.7925353868 0.7139234664
7.1335225990 -0.7919517777 0.7076971075
7.1128146759 -0.7927493825 0.7032660913
7.1630821057 -0.7805861085 0.7253544733
7.2039592180 -0.7830149067 0.7296653627
7.0346695866 -0.7722029307 0.7126468083
7.1840181387 -0.8021921971 0.7049998331
7.0564858586 -0.7827104290 0.7047409018
7.0200994134 -0.7858383542 0.6950420592
6.9739585251 -0.7785036180 0.6952655927
6.9463865596 -0.7793404565 0.6896153163
7.1231129751 -0.8017514951 0.6950552567
6.9584494791 -0.7869968361 0.6831979136
6.9168542129 -0.7761258548 0.6881184821
6.9588640394 -0.7725916394 0.6992307900
7.0661171386 -0.7913540221 0.6968130702
6.9790736187 -0.7697823387 0.7058055207
7.1893959096 -0.8328861899 0.6695087512
7.0760617554 -0.8002042055 0.6885147488
7.1309157948 -0.8144062072 0.6812626784
7.1464650831 -0.8165776446 0.6814407712
7.0978131946 -0.8002223364 0.6924011720
7.1699106283 -0.8074094272 0.6966977397
7.0977200363 -0.8109289353 0.6794869430
7.0812061567 -0.8092562201 0.6785347581
6.9318510780 -0.8098497046 0.6509839197
7.0279096130 -0.8155593498 0.6613655691
7.0019855655 -0.8193450235 0.6521472308
7.0915753172 -0.8178325797 0.6700665320
6.8832239393 -0.8069211878 0.6457744447
7.0156667906 -0.8051931561 0.6716532362
6.9161750571 -0.8077792706 0.6506613833
7.1413627440 -0.8265179807 0.6685495635
6.9664801525 -0.8030026383 0.6654542145
6.9811168542 -0.8000561870 0.6716335044
6.9090287557 -0.7901450152 0.6706201205
7.0724588582 -0.8177521062 0.6667286538
6.8975988448 -0.8097752766 0.6449191836
7.0476946463 -0.8187096619 0.6611255524
7.0818207615 -0.8349003127 0.6468648468
7.1064852269 -0.8437820532 0.6398860252
7.0124867927 -0.8309296929 0.6389493396
7.1806297421 -0.8518555418 0.6433317822
7.1563576004 -0.8405518817 0.6535607852
7.1755325472 -0.8396820511 0.6583305077
6.9898974765 -0.8235877239 0.6443017638
7.1021198183 -0.8325714322 0.6537606126
7.1234915337 -0.8350822957 0.6545129035
7.2067716307 -0.8401196666 0.6636690237
6.9932957069 -0.8405916441 0.6226472356
7.0601028660 -0.8452228797 0.6292182189
7.0451734577 -0.8390557156 0.6344798133
7.0770392988 -0.8421849172 0.6364073965
7.0944682025 -0.8486762746 0.6311937380
7.0307092695 -0.8353309990 0.6366266120
6.8942493170 -0.8249705711 0.6243858546
7.0192258730 -0.8424168578 0.6251613752
7.1738728489 -0.8660656700 0.6228854750
7.0658763467 -0.8633377365 0.6051568680
6.9529067598 -0.8442087583 0.6098899915
7.0482589827 -0.8537710157 0.6153112510
7.1095002780 -0.8610509801 0.6171648198
7.1879323379 -0.8724111335 0.6166257353
7.1382332177 -0.8742279374 0.6040731586
7.0708240377 -0.8539588524 0.6195620761
6.9390615758 -0.8482395833 0.6013518468
7.0112727635 -0.8604764005 0.5983129464
6.9737453913 -0.8521187799 0.6027502941
7.0714896729 -0.8743910741 0.5904719727
6.9988056956 -0.8634415557 0.5915750042
6.9051866775 -0.8517869237 0.5894935167
6.9597234414 -0.8537663092 0.5975854803
6.8838473902 -0.8558052787 0.5794722320
7.0884373059 -0.8859625222 0.5763436386
7.1666750524 -0.8935979722 0.5810701368
7.0086614782 -0.8789839156 0.5702620290
7.1121774542 -0.8961939427 0.5653982543
7.0038046934 -0.8720044483 0.5801441917
7.1862342361 -0.8996926169 0.5757045002
7.0676945014 -0.8846352209 0.5740002316
7.1992411224 -0.9096846356 0.5628467233
7.1196770144 -0.8899265907 0.5767992308
7.1779882151 -0.9076161931 0.5615538916
6.9338065336 -0.8644339937 0.5770715764
7.1483059525 -0.8880314714 0.5858632372
7.1067701243 -0.8821005655 0.5862903660
6.9741025627 -0.8809458225 0.5598301282
7.1051013814 -0.9033056163 0.5527668856
7.1534611877 -0.9076980359 0.5562001034
7.0615297484 -0.8908921054 0.5629000322
6.9322004535 -0.8720371083 0.5648369591
6.9653610732 -0.8735388539 0.5695532604
6.9948103907 -0.8843237209 0.5589586330
7.1100592045 -0.9164408263 0.5314355751
7.0350484863 -0.9006679851 0.5414086361
7.0827463403 -0.9088282130 0.5382759202
7.0699498370 -0.9030760685 0.5452322955
7.1826666719 -0.9221839820 0.5381311314
7.1958794902 -0.9167180834 0.5505261011
7.0010360743 -0.8942099193 0.5447396806
7.0194649912 -0.9039406330 0.5322380111
7.2009356920 -0.9241109440 0.5389886033
6.9837210246 -0.8950349401 0.5393757679
7.1932317709 -0.9317177064 0.5241747076
6.9547864929 -0.9096857412 0.5076298740
7.0009125779 -0.9021167712 0.5311389485
6.9211466216 -0.8935803513 0.5276060892
7.0693992732 -0.9156461344 0.5235295075
6.9023391145 -0.8929026431 0.5244814198
7.0081619732 -0.9154581009 0.5098905459
6.9612237873 -0.8955203749 0.5334132688
7.1216944032 -0.9219585349 0.5246168524
7.0621827020 -0.9246586502 0.5058753598
7.1138852013 -0.9408957328 0.4878499850
7.1015959663 -0.9338500865 0.4981636757
6.9836101810 -0.9177676826 0.4996153219
7.0366642177 -0.9267434713 0.4956622578
7.1866282213 -0.9518261869 0.4850343312
7.0750465712 -0.9331428519 0.4929806789
7.1533449376 -0.9439588168 0.4917462186
7.2010986427 -0.9495370121 0.4929204116
7.0228149024 -0.9250139499 0.4955332004
7.0015499039 -0.9225788083 0.4949178680
7.0756172700 -0.9229722791 0.5123663376
7.0951453033 -0.9415835711 0.4819453825
7.0480765217 -0.9341512841 0.4844478714
7.1568077595 -0.9509497899 0.4793679842
6.8857589116 -0.9134599709 0.4837317166
6.9506161510 -0.9152227162 0.4963268314
6.9262563605 -0.9214774591 0.4785077746
6.9361506737 -0.9132721302 0.4964647439
7.1074832005 -0.9497827101 0.4688066845
7.1054064580 -0.9550760106 0.4571484624
7.1771590760 -0.9702784076 0.4443939597
7.0702884469 -0.9443626998 0.4702565767
7.1964039946 -0.9671945832 0.4559960664
7.0715020981 -0.9515631276 0.4554751508
6.9528496005 -0.9309142521 0.4671466064
7.1226238385 -0.9591808190 0.4531294257
7.0513609505 -0.9443839309 0.4651638650
7.1768228000 -0.9637336327 0.4580339570
7.1255812276 -0.9498664200 0.4734580216
7.0850114280 -0.9454586134 0.4718843417
6.9672375561 -0.9489348718 0.4331801429
6.9865443891 -0.9460395879 0.4444032804
6.9327097603 -0.9334297451 0.4564980526
7.0769877535 -0.9597013272 0.4398658177
6.9174410239 -0.9374410808 0.4440106540
7.1628360596 -0.9695157425 0.4421737720
6.9571217246 -0.9393497083 0.4505900303
6.9651032618 -0.9545180092 0.4199266531
7.1420715920 -0.9734809113 0.4272358216
7.1687105959 -0.9831308609 0.4124182530
7.1662608260 -0.9769173284 0.4262568611
7.1112462331 -0.9744269948 0.4160093887
7.0309320640 -0.9638662200 0.4172711357
7.0953660436 -0.9665155073 0.4298995771
6.9185148684 -0.9612216583 0.3906059461
7.1869396309 -0.9907431051 0.3999155835
6.9769267183 -0.9612004521 0.4077295781
6.9177025427 -0.9474872297 0.4225403451
6.9432401808 -0.9595134986 0.4018344617
6.9051219607 -0.9539376132 0.4037534756
7.0522206227 -0.9747602782 0.3979753599
6.9979641361 -0.9615122704 0.4131484677
6.8959823484 -0.9478040622 0.4154493116
7.1551264745 -0.9866917549 0.4001064798
7.1725242463 -0.9998595243 0.3712867900
6.9502557671 -0.9682753919 0.3826523674
7.1205659936 -0.9865726365 0.3895264270
6.9745000230 -0.9754774058 0.3714962223
7.0754865919 -0.9899727547 0.3659489185
7.0094620270 -0.9802494546 0.3702258463
6.9191938004 -0.9684771713 0.3720576713
7.1392882233 -1.0006433398 0.3584515406
7.1599523408 -1.0028369394 0.3593553847
7.0226513454 -0.9811079220 0.3722324173
7.1754355022 -1.0102662032 0.3429961911
7.1605390540 -1.0087409472 0.3421648066
7.1044405498 -1.0001003196 0.3477511085
7.1741531569 -1.0149493456 0.3284360799
7.0751855484 -0.9994990978 0.3389132301
7.0438533914 -0.9916803741 0.3510396717
7.1412405647 -1.0077852250 0.3380173741
7.1223072071 -1.0049945602 0.3395248901
7.0605479787 -0.9968800733 0.3414676406
7.1296683916 -1.0132474793 0.3173677215
6.9839957507 -0.9943838859 0.3211189865
6.9901073064 -0.9906274167 0.3346478629
6.9719811527 -0.9953787898 0.3137523323
7.1528334877 -1.0156897153 0.3184488641
7.1057951297 -1.0083897645 0.3232979299
7.0196523083 -0.9978457489 0.3236778541
6.9442821202 -0.9893101630 0.3219342715
7.0738712181 -1.0053118020 0.3209422273
6.9883833936 -0.9993759373 0.3074625180
7.0193874988 -1.0034283564 0.3062409380
7.1962992652 -1.0217737753 0.3159192211
6.9643160964 -0.9989927175 0.2987849045
7.1796971122 -1.0200474159 0.3150275112
7.1178967132 -1.0216806423 0.2836252435
7.0397184794 -1.0045434158 0.3108140341
7.0343061210 -1.0085666464 0.2945435019
7.1176452750 -1.0156572030 0.3045090621
7.0761947073 -1.0119907741 0.3000395424
7.0625959162 -1.0137372347 0.2882964489
7.0029358450 -1.0115266956 0.2711778942
6.9076444063 -0.9928926476 0.2964626753
7.1916304573 -1.0332585234 0.2739586685
6.9828531615 -1.0053965258 0.2841831369
7.0996571309 -1.0201384866 0.2814104224
7.0769846507 -1.0246104733 0.2538771228
7.0586082837 -1.0242032016 0.2466145972
7.0996785371 -1.0299014475 0.2431216932
7.1328445818 -1.0273534443 0.2697538347
7.1111710932 -1.0293616013 0.2509368394
7.1773125522 -1.0332758764 0.2669904162
7.1460115206 -1.0334139863 0.2511932063
7.1971318590 -1.0386532054 0.2544807354
7.0416758827 -1.0168361362 0.2687255293
6.9179412137 -1.0042109554 0.2605369645
6.9497976568 -1.0088231265 0.2570355496
7.0086801125 -1.0180146236 0.2478179905
7.1122088185 -1.0342053979 0.2314876880
6.9084746082 -1.0096384191 0.2335730490
6.9327191410 -1.0072633050 0.2551524082
7.0360557082 -1.0234047394 0.2389318844
6.9759980904 -1.0126626358 0.2539654199
6.9741250967 -1.0161348038 0.2387506537
7.1473874814 -1.0412144625 0.2175931005
7.0816031835 -1.0322268193 0.2240593824
7.0055022801 -1.0246967076 0.2171601861
7.1498810569 -1.0460580515 0.1947636034
7.0571811731 -1.0330705103 0.2054936224
7.0867813423 -1.0356428188 0.2099656613
7.1088831469 -1.0409074807 0.1965330864
7.0899315907 -1.0389208898 0.1953734448
6.8878304003 -1.0099478509 0.2220670741
7.0000052337 -1.0286271844 0.1942203527
7.0432797691 -1.0316454340 0.2044818343
6.9698637655 -1.0270642550 0.1843680066
6.9686269805 -1.0210820643 0.2136459341
6.9291141104 -1.0180774886 0.2055237463
6.9859352957 -1.0251899999 0.2032014256
7.0698627125 -1.0380429910 0.1879973240
6.9444902336 -1.0200601232 0.2046046628
7.1784193538 -1.0569604201 0.1486114046
7.0212038130 -1.0339517109 0.1788891985
7.1343068004 -1.0466834978 0.1814862298
7.1786526452 -1.0542288578 0.1662126645
7.1794945471 -1.0517865634 0.1824193851
7.2010695935 -1.0544766852 0.1812465740
7.1080913535 -1.0442199785 0.1777738333
7.0734736089 -1.0430719496 0.1594404673
6.9356602850 -1.0241350648 0.1781192208
7.0027800233 -1.0319955930 0.1777144695
7.1954913013 -1.0584555025 0.1517257383
6.9756803315 -1.0333806374 0.1487916956
6.9939386681 -1.0340894604 0.1578018650
7.1092620865 -1.0493831409 0.1456988382
7.0526469043 -1.0416010546 0.1533889231
7.1421965321 -1.0536277412 0.1430273183
6.9116390850 -1.0249273908 0.1552599478
6.9438227439 -1.0290834987 0.1525965693
7.0249123414 -1.0396035060 0.1455776336
7.0246592824 -1.0419882131 0.1261684934
6.9451093791 -1.0319374183 0.1336831884
7.1765196789 -1.0607546316 0.1154913048
7.0102869126 -1.0392410346 0.1356504674
6.9738248889 -1.0351486707 0.1346068781
7.1509047807 -1.0559247689 0.1318124648
7.1139981414 -1.0527732040 0.1221135838
6.9225319890 -1.0331039936 0.1007535279
7.0180121721 -1.0441623493 0.1005029604
7.1722058281 -1.0619899776 0.1003672161
6.9003702864 -1.0275306379 0.1270411443
6.9277687011 -1.0314590866 0.1203808744
6.9921781490 -1.0398918155 0.1117240767
7.0970033593 -1.0543401220 0.0870673831
7.2047405775 -1.0677468166 0.0732261850
7.1574054776 -1.0609783979 0.0913493285
6.9674024795 -1.0393698957 0.0878485385
6.9916747639 -1.0419488672 0.0907840575
7.1152884976 -1.0569801429 0.0797177010
7.1683512530 -1.0643734558 0.0620634442
6.9510404834 -1.0369009949 0.0958863359
7.1408369725 -1.0585672164 0.0982697013
7.2072778338 -1.0670595942 0.0866544547
7.0799205158 -1.0534640802 0.0721236566
7.1776031006 -1.0644636803 0.0754259681
7.0331160618 -1.0474469110 0.0807817701
6.9786315708 -1.0399613879 0.0974570070
7.0521861221 -1.0502590370 0.0723106377
6.9209764740 -1.0355610649 0.0668202121
6.8843371979 -1.0306505531 0.0763428996
6.8918788788 -1.0327674375 0.0592142417
6.9079963809 -1.0336391932 0.0726928670
6.8989372444 -1.0317860747 0.0838099155
7.0572419751 -1.0521411708 0.0539356182
7.0858864993 -1.0554219672 0.0541974376
7.1245155708 -1.0599626345 0.0508546763
7.1982903084 -1.0684676604 0.0497732107
7.1366225879 -1.0615791915 0.0436595655
7.1039437431 -1.0582158561 0.0312991393
7.1327987219 -1.0615960474 0.0291701003
6.9811464236 -1.0434700180 0.0518277551
7.1711497201 -1.0662419848 0.0214670695
7.1635031033 -1.0646114404 0.0453832797
7.0124608250 -1.0478628633 0.0264908743
7.0002707010 -1.0461991087 0.0348825840
7.0905846811 -1.0568368497 0.0263758895
7.0406461252 -1.0509402649 0.0315407995
7.0693027504 -1.0548545279 0.0117150771
6.8994295113 -1.0347714968 0.0300769577
6.9335148770 -1.0390265326 0.0192312810
7.1997844012 -1.0697676373 0.0039939309
7.1486678356 -1.0639111677 0.0050305615
7.0632814279 -1.0540123648 -0.0049818851
7.1518780846 -1.0640633819 -0.0168595428
7.1367121011 -1.0623671390 -0.0123672124
7.1649187775 -1.0656866335 -0.0040476413
7.1264965503 -1.0613308772 0.0014199474
7.0809633366 -1.0560766309 -0.0014495555
6.9982663630 -1.0465140495 -0.0086713043
6.9751425516 -1.0439210648 -0.0025007521
7.1562577987 -1.0644224911 -0.0313905071
7.0329801724 -1.0503842315 -0.0202061204
7.0691629699 -1.0544635910 -0.0276342601
7.0130028390 -1.0479791461 -0.0315663516
6.9399542091 -1.0398152286 -0.0093027044
7.1740896871 -1.0664971249 -0.0285529637
6.8976063370 -1.0347344040 -0.0316165187
6.9613945051 -1.0416434814 -0.0398367940
7.2009302215 -1.0692999426 -0.0373046888
7.1348547352 -1.0609081949 -0.0528829955
7.0748173359 -1.0544391511 -0.0444896185
7.1712385965 -1.0642538615 -0.0691807283
7.1384525375 -1.0622376433 -0.0350138534
7.0883721917 -1.0565682945 -0.0333416304
6.9761047283 -1.0431965511 -0.0425167941
7.0100838086 -1.0463980322 -0.0562365184
7.0918161740 -1.0550450025 -0.0707786135
6.9131854498 -1.0359996347 -0.0418622752
7.0413313912 -1.0500252536 -0.0555272248
7.1267861466 -1.0588043703 -0.0758363454
7.0156197467 -1.0462245731 -0.0720310904
6.8845315974 -1.0311606677 -0.0720254895
6.9654386329 -1.0395258284 -0.0833632929
7.1421430856 -1.0595589969 -0.0869577603
7.1628960057 -1.0620223155 -0.0861890159
7.1535029367 -1.0590818593 -0.1062043724
7.0457521179 -1.0486659063 -0.0846215011
7.1845917739 -1.0646981783 -0.0843011956
6.9820403430 -1.0407291989 -0.0910138777
6.9225944893 -1.0320326797 -0.1108889760
6.9668294983 -1.0366930690 -0.1156089092
6.9534578741 -1.0364411513 -0.1017188867
7.0274731744 -1.0438374160 -0.1139433837
6.9400660958 -1.0366123441 -0.0832454931
6.9131894832 -1.0329959258 -0.0888329859
7.1074219874 -1.0516729017 -0.1259674982
7.0890005123 -1.0501981089 -0.1210790532
7.1822906659 -1.0592824068 -0.1338405080
7.0188669732 -1.0405656829 -0.1322952631
7.0003680902 -1.0394864071 -0.1244039233
7.1160449185 -1.0511858903 -0.1369964547
7.2021175310 -1.0595058721 -0.1492271421
7.1470967141 -1.0547426286 -0.1372870007
7.2072626110 -1.0633553564 -0.1250716655
6.9175605637 -1.0251821836 -0.1594080946
7.1419395750 -1.0508098845 -0.1620503055
7.0606551253 -1.0424910262 -0.1539278193
6.9506170713 -1.0317202532 -0.1392882930
6.8841790377 -1.0244504136 -0.1361416863
6.9536702047 -1.0302593772 -0.1527589181
6.9925380438 -1.0353392941 -0.1484608344
7.0075588724 -1.0373059855 -0.1467737315
6.9353935214 -1.0277044046 -0.1560143401
7.1874726491 -1.0559517893 -0.1630223322
7.2058487110 -1.0536214870 -0.1886322697
7.0717843007 -1.0419734057 -0.1661679390
7.1021310641 -1.0450286120 -0.1688888663
7.1914993415 -1.0503721667 -0.1975389709
7.1762668253 -1.0483155641 -0.1991275064
7.1625516718 -1.0500395415 -0.1803612258
7.0692372646 -1.0395194869 -0.1783515812
7.1995199982 -1.0554736987 -0.1740042452
7.1172794003 -1.0445177136 -0.1817468348
7.0323259083 -1.0376657554 -0.1645228804
6.9524475375 -1.0277076398 -0.1681843155
6.9879242462 -1.0273264831 -0.1936919379
7.0268560526 -1.0305253491 -0.2012530563
7.0791923560 -1.0379785060 -0.1936090008
6.8862767551 -1.0213976864 -0.1602637996
6.9247799266 -1.0234451122 -0.1740464235
7.1075414834 -1.0398447349 -0.2017305502
6.9690970452 -1.0249256122 -0.1948586062
7.0043072594 -1.0305565802 -0.1862325115
7.1358346057 -1.0431581077 -0.2016413263
7.0431096870 -1.0335135091 -0.1950749924
7.0533496319 -1.0308549726 -0.2145175645
7.1424343194 -1.0400153397 -0.2204627726
7.0917183561 -1.0326522218 -0.2268417769
7.1895452555 -1.0468615135 -0.2145079057
7.1721656633 -1.0384496583 -0.2434588766
7.1753409352 -1.0435240674 -0.2220906139
7.1233827458 -1.0354565019 -0.2310079898
7.1526450068 -1.0371199692 -0.2390764267
6.9622880130 -1.0205852075 -0.2125588959
7.1613588585 -1.0446770440 -0.2093821559
7.2092305519 -1.0474108411 -0.2225251897
6.9844024858 -1.0170621773 -0.2403830869
7.0014020957 -1.0201846970 -0.2352703217
7.1064144837 -1.0312615981 -0.2410117207
6.8887795138 -1.0099397221 -0.2216830435
7.0787514043 -1.0272417774 -0.2445074454
7.1378459231 -1.0348126981 -0.2416591061
6.9368225327 -1.0142092224 -0.2279375167
6.9512511637 -1.0107664748 -0.2502043812
6.9359674877 -1.0094671640 -0.2482529827
7.1875716485 -1.0364621986 -0.2591266662
7.1580793892 -1.0336549607 -0.2564985206
7.1848156580 -1.0304927419 -0.2805174505
7.1744256629 -1.0327226045 -0.2673885681
7.0712605076 -1.0217844941 -0.2624347148
7.0399255553 -1.0151570514 -0.2734602627
6.9689585656 -1.0062134610 -0.2754332806
7.0270397945 -1.0110264590 -0.2833216084
6.9407099366 -1.0016828924 -0.2798981039
7.0596122854 -1.0155610259 -0.2807872500
6.8960520021 -1.0014695249 -0.2606121239
6.9225328450 -1.0012041591 -0.2735338341
7.2066133886 -1.0166279274 -0.3358615865
7.1689931634 -1.0218862137 -0.3041710337
7.1589088106 -1.0173613184 -0.3149124101
7.1863757316 -1.0232944088 -0.3063736303
7.1514638315 -1.0210855025 -0.2999421582
7.0433396983 -1.0113469903 -0.2894153813
7.1150951565 -1.0153105203 -0.3045028853
7.1990375933 -1.0207241523 -0.3196344465
6.9929825737 -1.0054632427 -0.2888828135
7.0794084409 -1.0151147234 -0.2912443303
7.0637620540 -1.0077360986 -0.3090706327
7.0360404235 -1.0021076848 -0.3165226532
6.9106176084 -0.9905050817 -0.3053037149
6.9495384197 -0.9902202018 -0.3213794428
6.9433211385 -0.9957547047 -0.3010190412
7.1505577532 -1.0111018581 -0.3319511240
6.9674502037 -0.9910971554 -0.3255100739
7.0040821212 -0.9957446142 -0.3247066636
6.9004142139 -0.9925592222 -0.2946729793
6.9649747780 -0.9969176753 -0.3056793010
7.1093724481 -1.0026755887 -0.3419317197
7.1945688881 -1.0054442720 -0.3633909475
7.1620273199 -1.0097396307 -0.3400895845
7.1797153943 -1.0059028423 -0.3569935636
7.1768557413 -1.0115841249 -0.3399795458
7.1560068354 -1.0016338811 -0.3608939336
7.0813930818 -1.0026486088 -0.3323946584
7.0549795015 -0.9996487227 -0.3317845454
6.9079145010 -0.9837858977 -0.3260175888
7.0756317616 -0.9955250117 -0.3505166050
7.1324088507 -1.0071461989 -0.3372313944
6.8852149852 -0.9803607640 -0.3278835257
6.9238019002 -0.9750799568 -0.3560426925
6.9191813586 -0.9790999225 -0.3431115921
6.8848593915 -0.9737085834 -0.3465325212
6.9474462737 -0.9739143086 -0.3674556940
6.9036837380 -0.9774536235 -0.3424324359
6.9453804544 -0.9844945169 -0.3368906093
7.0086485333 -0.9758725461 -0.3814793214
7.1653324806 -0.9847821453 -0.4075442755
7.1972795422 -0.9899885509 -0.4044187343
7.1542918507 -0.9928770208 -0.3839894492
7.0426088371 -0.9814651215 -0.3780122239
7.1711854257 -0.9905350858 -0.3950226445
7.1312160589 -0.9820747291 -0.4037796848
7.1021186882 -0.9790212015 -0.4024224026
7.0405159661 -0.9692080947 -0.4078859094
7.1446466609 -0.9790245041 -0.4155100425
7.0426816176 -0.9754843507 -0.3929258578
6.9713013353 -0.9648011617 -0.3975448824
6.9463993157 -0.9686323718 -0.3803375361
6.9060541879 -0.9552596857 -0.4012098222
7.1194574593 -0.9768789203 -0.4130955792
7.0932240898 -0.9679294273 -0.4259003338
7.1814469384 -0.9721183301 -0.4412529895
7.1995523509 -0.9774674910 -0.4344375395
7.1516932106 -0.9752924981 -0.4258928044
6.9711336202 -0.9574181821 -0.4151191479
6.9560777246 -0.9572869989 -0.4112033875
6.9192731650 -0.9542745591 -0.4076065997
7.0187325690 -0.9646802729 -0.4122984003
7.1336988672 -0.9696751362 -0.4333346655
7.1588765141 -0.9662008093 -0.4480825043
7.1802763952 -0.9795832987 -0.4243545306
6.9369171427 -0.9504268984 -0.4210781039
7.0657663045 -0.9571574856 -0.4421404595
6.8892192309 -0.9367232437 -0.4381707079
6.9782473014 -0.9454687165 -0.4436333058
6.9912605469 -0.9551573501 -0.4257618726
6.9049619289 -0.9407052364 -0.4337300265
6.9500561932 -0.9457476408 -0.4351368698
7.0437400226 -0.9538565396 -0.4433135161
6.8932984334 -0.9449074124 -0.4211426306
6.9652498500 -0.9421388207 -0.4473934943
7.0089927329 -0.9484223598 -0.4456675556
7.1774459106 -0.9644895833 -0.4570699555
6.9961708340 -0.9494619182 -0.4397771179
7.1053026756 -0.9562000707 -0.4552657374
7.0826395891 -0.9521659962 -0.4575099766
7.0328057865 -0.9460596862 -0.4569293751
7.0650843373 -0.9476530021 -0.4620181478
7.0468593531 -0.9410025577 -0.4706196518
7.1596634397 -0.9479792838 -0.4855929191
7.1504145429 -0.9593700020 -0.4604958386
7.1352751392 -0.9546935972 -0.4659488684
6.9502432939 -0.9348762967 -0.4580959134
6.9928209333 -0.9318972223 -0.4749461336
7.0676834599 -0.9358402570 -0.4862540760
7.1173385620 -0.9413629530 -0.4879533546
7.0271245640 -0.9291346462 -0.4892450331
6.9326468160 -0.9248130254 -0.4736681748
6.9780491307 -0.9341740362 -0.4666194449
6.8986156098 -0.9320278069 -0.4505554609
6.8992865468 -0.9254887735 -0.4637748103
