6.7050156131 0.2541059909 0.9800726001
6.6256884666 0.2551879387 0.9701952361
6.7742944764 0.2541430537 0.9884604392
6.8542401963 0.2335361144 1.0031524448
6.7050426551 0.2416624470 0.9830965331
6.6553287822 0.2375341382 0.9780731600
6.7709390973 0.2224042413 0.9957582797
6.6785816478 0.2205408951 0.9850165321
6.7278706895 0.2286956257 0.9890110212
6.7050255707 0.2364439119 0.9843612438
6.5991103486 0.2297982676 0.9731371263
6.7456707705 0.2303374556 0.9907699100
6.7016441595 0.2309291206 0.9852900965
6.7359209264 0.2295216212 0.9897862329
6.7822061307 0.2139952417 0.9988858247
6.7368061860 0.2174600836 0.9927424024
6.6692327696 0.2038472219 0.9873408798
6.7677304730 0.2187245223 0.9962043495
6.7616212968 0.2183437492 0.9955465474
6.8697346266 0.1916393176 1.0138554662
6.6610749639 0.2069156163 0.9857493365
6.7984887665 0.2110578513 1.0014270522
6.8051876923 0.1910901716 1.0062127746
6.7300141076 0.2172664587 0.9919652690
6.6634596979 0.1874520480 0.9899164582
6.7803473463 0.1860212875 1.0042400685
6.7641446476 0.1884376237 1.0018123275
6.6744908983 0.2006809811 0.9886036822
6.6239172324 0.1915257763 0.9843551274
6.6606542817 0.1981612101 0.9874442905
6.6192955025 0.1964080466 0.9828266065
6.6103735032 0.2075377451 0.9795359820
6.6809316309 0.1805778080 0.9933854697
6.7763722002 0.1715763478 1.0063303071
6.7893374805 0.1558559733 1.0103399328
6.7027639217 0.1628830591 0.9989171994
6.6464713381 0.1694423299 0.9911779068
6.8277357263 0.1491502593 1.0159688026
6.6618623344 0.1750878823 0.9921279896
6.8667076589 0.1698268150 1.0173743719
6.7287634313 0.1727789293 1.0004658730
6.7883577854 0.1509903102 1.0109857412
6.7796384078 0.1446835201 1.0109346867
6.7517875679 0.1389689197 1.0085099481
6.7082417332 0.1465816147 1.0021252279
6.6797802257 0.1562612102 0.9972149236
6.8240260812 0.1381230058 1.0172548613
6.6867088801 0.1377430161 1.0009433547
6.6662521398 0.1481941961 0.9968664531
6.5722663547 0.1451811657 0.9861336329
6.6004622788 0.1621618465 0.9868337586
6.8210619951 0.1092430976 1.0202205876
6.6701503334 0.1217345416 1.0008975141
6.8813780337 0.1369571713 1.0241945032
6.6614157659 0.1225249129 0.9997713962
6.8765618378 0.0982851142 1.0280564148
6.7401300006 0.1184451440 1.0095709520
6.6602904379 0.1342427123 0.9982947986
6.6685426251 0.1288474781 0.9998915735
6.8145560849 0.1173848639 1.0185160123
6.5593644661 0.1046506808 0.9897216593
6.7017020150 0.1067201254 1.0063591620
6.5672590076 0.1171707797 0.9892224451
6.7591136913 0.1047404063 1.0133924886
6.7156176241 0.0967075663 1.0091566290
6.6446989345 0.1136664337 0.9988049693
6.7602969260 0.1011881828 1.0139399479
6.7634443423 0.0955933641 1.0149544065
6.6689194312 0.1133411521 1.0017136976
6.8115909236 0.0883570846 1.0211868581
6.6918754189 0.0916933496 1.0068056841
6.8657356217 0.0727961606 1.0287158515
6.7850729967 0.0677913524 1.0195549043
6.7002472426 0.0927780002 1.0077152653
6.8764537814 0.0636809329 1.0306463228
6.8089467727 0.0877581197 1.0209182731
6.8827240986 0.0558732556 1.0319561737
6.6914019595 0.0813802242 1.0075018268
6.7958518223 0.0915068810 1.0190984477
6.7045956066 0.0559503759 1.0109143635
6.6438491310 0.0525666917 1.0039872242
6.6423425485 0.0554651110 1.0035979409
6.6457975475 0.0705853332 1.0029033430
6.6399680221 0.0702575241 1.0022388069
6.7018680963 0.0565784310 1.0105464567
6.7553357497 0.0600612923 1.0166067672
6.6635411178 0.0551386243 1.0061252063
6.7587518928 0.0677444466 1.0164499168
6.8820776055 0.0214574451 1.0330469327
6.6577012742 0.0450951961 1.0058623883
6.7501485764 0.0443590315 1.0167796444
6.7258717082 0.0386475512 1.0140985503
6.5985023404 0.0488131802 0.9987693300
6.8075869282 0.0384151303 1.0237352751
6.7900295385 0.0359455133 1.0217440025
6.7196010469 0.0477264566 1.0130739298
6.8016642321 0.0440088737 1.0228613240
6.6099666585 0.0303755996 1.0007004489
6.7769986416 0.0112334571 1.0209860135
6.6310747729 0.0224083303 1.0034385486
6.7577107381 0.0259812946 1.0182490553
6.5648242358 0.0471802465 0.9948520449
6.5593423381 0.0450770953 0.9942722284
6.5672752585 0.0329299692 0.9955892691
6.7477268726 0.0271624646 1.0170353786
6.6520225667 0.0130430024 1.0062017466
6.8603044499 -0.0157034587 1.0305413592
6.7134569251 0.0077314412 1.0134759569
6.7145324957 0.0007306404 1.0135334698
6.7543136093 -0.0113637149 1.0180997249
6.7283945357 -0.0104875579 1.0150554102
6.7783794728 -0.0040106531 1.0210070680
6.7116425187 0.0097786627 1.0132824697
6.7486373727 0.0006525545 1.0175498652
6.7144621266 -0.0031470645 1.0134868644
6.6168396044 -0.0066887408 1.0019530564
6.5878508861 -0.0204184511 0.9984028694
6.6419016966 -0.0220110341 1.0047536970
6.6518528646 -0.0114509680 1.0060301638
6.7882685027 -0.0195637461 1.0220181989
6.5781686620 -0.0209809940 0.9972568571
6.6451201828 -0.0228571060 1.0051244384
6.5972923365 0.0015709485 0.9997322197
6.5683036079 0.0064385920 0.9963657741
6.7327970240 -0.0476426352 1.0145193665
6.8204142400 -0.0420242895 1.0251407071
6.7778444630 -0.0415178896 1.0201460975
6.7063852937 -0.0349798058 1.0120535330
6.8283001080 -0.0595547564 1.0251721339
6.7127444698 -0.0350678634 1.0127990037
6.8544094180 -0.0638319233 1.0280321498
6.6653621709 -0.0368257901 1.0071207486
6.7730849152 -0.0391342078 1.0197069565
6.7805987528 -0.0395349580 1.0205725763
6.6553190896 -0.0495086672 1.0052861588
6.7209776820 -0.0539658474 1.0128012937
6.7240925356 -0.0564085298 1.0130434357
6.5866212143 -0.0563097010 0.9968354615
6.6110874517 -0.0528796388 0.9998967825
6.5617402286 -0.0551269106 0.9939616892
6.6666557355 -0.0608000031 1.0060443612
6.5642322955 -0.0329662209 0.9953915954
6.6199013307 -0.0425582654 1.0014653630
6.8214129015 -0.0767882068 1.0233486041
6.8480033155 -0.1099015485 1.0234203482
6.7780953958 -0.0864241522 1.0173301890
6.8748420655 -0.0951555582 1.0279638232
6.7576419033 -0.0801248185 1.0154954714
6.8345839753 -0.1001268632 1.0227402812
6.7752083204 -0.0834012019 1.0172692726
6.6650363746 -0.0743126659 1.0050807215
6.8785885834 -0.0998458211 1.0279716407
6.6522150996 -0.1025606226 1.0009421154
6.5762904894 -0.0945772232 0.9927020794
6.6400592399 -0.0856355196 1.0010751977
6.5591051803 -0.1003187031 0.9901363202
6.6188089567 -0.0951695951 0.9976765675
6.8431865657 -0.1119799375 1.0226576609
6.7634918398 -0.1096862393 1.0134435431
6.6471829019 -0.1065985546 0.9999720603
6.8042243500 -0.1151116804 1.0177581663
6.8702852531 -0.1386740029 1.0224610622
6.6612867913 -0.1151046066 1.0007970271
6.6210878395 -0.1205523137 0.9952857401
6.8562494805 -0.1223218853 1.0229955205
6.7552841025 -0.1341964157 1.0093966917
6.8476063721 -0.1264753581 1.0214088624
6.6404425914 -0.1233932822 0.9972033179
6.8693238103 -0.1215695524 1.0246506946
6.8181613833 -0.1277318469 1.0177401853
6.8096277102 -0.1489166270 1.0138724883
6.5876414301 -0.1286666494 0.9902177706
6.6360120330 -0.1505663200 0.9930166358
6.6488625575 -0.1373170805 0.9963285103
6.6779123680 -0.1518724457 0.9978204196
6.5721554696 -0.1455323842 0.9861055523
6.6217041776 -0.1496966676 0.9914333344
6.7385631571 -0.1554451295 1.0045473337
6.7391006937 -0.1446049656 1.0060713556
6.7009473454 -0.1647945898 0.9984368351
6.8253889103 -0.1856873547 1.0096229248
6.6241415538 -0.1615209485 0.9898293156
6.8290348999 -0.1715542072 1.0125612331
6.8366426349 -0.1797652441 1.0120175118
6.8119475994 -0.1829286995 1.0085035513
6.6324786572 -0.1640183406 0.9903844061
6.7101470327 -0.1661802879 0.9992919225
6.6948881269 -0.1714765954 0.9965290520
6.6536754039 -0.1904592290 0.9882386848
6.6645817269 -0.1903478884 0.9895629497
6.8046987671 -0.1962759797 1.0052734373
6.6616450819 -0.1720447461 0.9924521155
6.7711605604 -0.1878215171 1.0027585837
6.6218660575 -0.1638316479 0.9891480388
6.5676221086 -0.1590533732 0.9835056402
6.6412807649 -0.1722048533 0.9899879049
6.7521242165 -0.1965549263 0.9989353806
6.7100807585 -0.2082154592 0.9913689818
6.7578520414 -0.2156857800 0.9954866085
6.7649325294 -0.2050055907 0.9986903087
6.7343768812 -0.2181037383 0.9921235246
6.7274306450 -0.2126509531 0.9924855014
6.8533723688 -0.2149226651 1.0071742321
6.8058495829 -0.2301208443 0.9980991784
6.8142957707 -0.2239821267 1.0004683926
6.7402807355 -0.2053859337 0.9956336276
6.6412480922 -0.2000883016 0.9848558711
6.6849244860 -0.2253081567 0.9845744993
6.6224924058 -0.2241255226 0.9773054004
6.7844614033 -0.2317385610 0.9951638474
6.5625320510 -0.2118568072 0.9727734913
6.8422817408 -0.2373745736 1.0008969626
6.6948819420 -0.2356961497 0.9834898558
6.7488636065 -0.2300648404 0.9912390037
6.7258657436 -0.2379430290 0.9867321494
6.6530890705 -0.2209723175 0.9816891030
6.7854825976 -0.2435379451 0.9925447281
6.7434335103 -0.2407862885 0.9881484880
6.6702348784 -0.2436335407 0.9784810344
6.7672026875 -0.2454113429 0.9898238745
6.6554324736 -0.2475262800 0.9756511308
6.7194609361 -0.2455473119 0.9839725231
6.6853217278 -0.2451677549 0.9799140980
6.8804051599 -0.2831054673 0.9936704925
6.7012008622 -0.2466227634 0.9814645632
6.7598023630 -0.2672946185 0.9831501912
6.6808639557 -0.2758871583 0.9712680806
6.7508079516 -0.2710327777 0.9810685337
6.7028076393 -0.2604284835 0.9780186924
6.7798031855 -0.2687863377 0.9851930438
6.6188880820 -0.2621254592 0.9673487000
6.5666239658 -0.2700649352 0.9588880885
6.6815415004 -0.2769462477 0.9710712517
6.6644138602 -0.2626354293 0.9727597484
6.8365425100 -0.3137740522 0.9788479937
6.8569734146 -0.3076960843 0.9832413795
6.6469612570 -0.2863929648 0.9639272315
6.7291521058 -0.2810826560 0.9756963525
6.7519480904 -0.2989980096 0.9729792800
6.8107933592 -0.2911995819 0.9826384027
6.7339687230 -0.2908605803 0.9732735452
6.6496166698 -0.2819006933 0.9656404121
6.6478175276 -0.2777705362 0.9666928093
6.8130304046 -0.3191037419 0.9743056671
6.8165476733 -0.3158954875 0.9757289558
6.5630427386 -0.2928026732 0.9516060061
6.6093907232 -0.3076956768 0.9527243704
6.5635926127 -0.3106433459 0.9461699220
6.6121072541 -0.2995884230 0.9555603052
6.6636512687 -0.3075156464 0.9594680825
6.6153246369 -0.2929349312 0.9580094883
6.7505689054 -0.3180623106 0.9669279246
6.7827131964 -0.3237602306 0.9690197854
6.7539313791 -0.3363848463 0.9609492577
6.6262499742 -0.3217148890 0.9501929492
6.6470492724 -0.3187501242 0.9538426947
6.8481500073 -0.3420417646 0.9707181184
6.7058734038 -0.3272155436 0.9581933686
6.5711646844 -0.3141701072 0.9459832234
6.7024414459 -0.3330209102 0.9557071884
6.8567782880 -0.3494268231 0.9691791719
6.8564729404 -0.3431125486 0.9713786860
6.7268292276 -0.3532538094 0.9515844939
6.6597447208 -0.3439439255 0.9465008654
6.7697646985 -0.3562937591 0.9558724125
6.6499115436 -0.3424129902 0.9458146471
6.6682674841 -0.3478411757 0.9461847520
6.6147591152 -0.3308061757 0.9455352513
6.7992753824 -0.3596662426 0.9583649226
6.7617376206 -0.3499058565 0.9571331120
6.6195112921 -0.3287788038 0.9468475506
6.7707063273 -0.3703432711 0.9505515673
6.8571492883 -0.3842932669 0.9559208089
6.8663364749 -0.3869225750 0.9560309046
6.8548897567 -0.3803245172 0.9572279840
6.6377720390 -0.3563804636 0.9392864436
6.6698035736 -0.3631114491 0.9406487554
6.8673362078 -0.3756939186 0.9606675715
6.7651485012 -0.3660213884 0.9515819272
6.7520916006 -0.3621719468 0.9514707015
6.6863622278 -0.3876593473 0.9328913115
6.5881841705 -0.3907894258 0.9191726780
6.7389127775 -0.3970720648 0.9357809845
6.6739701095 -0.3759742256 0.9360115164
6.8156773735 -0.4011168530 0.9439000125
6.7828370632 -0.3897942574 0.9442791773
6.7222212985 -0.3895917465 0.9366667032
6.5849906281 -0.3866732527 0.9204205118
6.5605970584 -0.3635577708 0.9266081878
6.7093985244 -0.4143224556 0.9242565777
6.7389064383 -0.4118709014 0.9291728291
6.7257085133 -0.4131887860 0.9268742226
6.6719787190 -0.4056628599 0.9233235376
6.8355031552 -0.4138070085 0.9407792152
6.8293576326 -0.4126993200 0.9404843095
6.6792593034 -0.3978313076 0.9277919689
6.7887976434 -0.4126263685 0.9352775539
6.7844912423 -0.4028677273 0.9391172593
6.8095326040 -0.4398966809 0.9256715773
6.7784636796 -0.4303861241 0.9259422873
6.6105808746 -0.4189845831 0.9093909767
6.7497804091 -0.4256194553 0.9243841872
6.6641258546 -0.4325722198 0.9101871489
6.6304757370 -0.4255172551 0.9090182381
6.7388932389 -0.4289314775 0.9214857871
6.6299473948 -0.4044940157 0.9184203862
6.8178626494 -0.4397721704 0.9268037558
6.7098318953 -0.4525672595 0.9061998910
6.8706677038 -0.4659021590 0.9207064392
6.8404225326 -0.4504660682 0.9244578620
6.6805442913 -0.4387552491 0.9092635272
6.6316430801 -0.4397604883 0.9023171462
6.5754723257 -0.4287222915 0.9004488536
6.7717099051 -0.4390441274 0.9211295380
6.5838667755 -0.4314637040 0.9001808784
6.8694530270 -0.4737772862 0.9165996189
6.8493324424 -0.4708856065 0.9153980218
6.5894349477 -0.4461868495 0.8935356473
6.5869125847 -0.4346987918 0.8989608205
6.7131255764 -0.4722748037 0.8967569644
6.6013154688 -0.4638581512 0.8862445169
6.7171530621 -0.4616870237 0.9025938662
6.6814722675 -0.4554362264 0.9010257539
6.7076054221 -0.4640454462 0.9001540204
6.6842127128 -0.4692825695 0.8944474070
6.5969727342 -0.4601708708 0.8875203348
6.8301807059 -0.5040873111 0.8949185520
6.8787035702 -0.4939538013 0.9070663182
6.6638031571 -0.4717886295 0.8904096971
6.6436844856 -0.4773451408 0.8846223066
6.6983334680 -0.4871741310 0.8865354087
6.8771819034 -0.5149070715 0.8952529719
6.8128385415 -0.4980002405 0.8959557539
6.8204715193 -0.4871077595 0.9030181514
6.7828867972 -0.4912385701 0.8956688067
6.5594277747 -0.4958716794 0.8630130658
6.8769368145 -0.5189401557 0.8929855759
6.6283497278 -0.4947473952 0.8729163309
6.7328170836 -0.5053321231 0.8811188230
6.6539223278 -0.4948898837 0.8762807597
6.6703536269 -0.4960954951 0.8778253177
6.5854561125 -0.4766142142 0.8771867584
6.6485884255 -0.4822221065 0.8825807059
6.6023711711 -0.4989685924 0.8670796849
6.8046348031 -0.5417399550 0.8691284851
6.8304182859 -0.5255965280 0.8825215236
6.8764314497 -0.5272943875 0.8878333781
6.7471096543 -0.5220537303 0.8731898352
6.8584323024 -0.5361972891 0.8799259379
6.8114452464 -0.5299650048 0.8772427594
6.7435797310 -0.5171184030 0.8757102527
6.8120613552 -0.5417220918 0.8701636868
6.8260866746 -0.5301895253 0.8791253886
6.6202824285 -0.5324752380 0.8493467941
6.6091699155 -0.5183051868 0.8564484487
6.6344695818 -0.5252540798 0.8557037079
6.6192597797 -0.5126998025 0.8612556847
6.7179348091 -0.5284111399 0.8652920395
6.6001509050 -0.5263768919 0.8502860864
6.6026987504 -0.5255380623 0.8511486328
6.6133235306 -0.5219796401 0.8547823544
6.5896247890 -0.5335899483 0.8444390627
6.6976378453 -0.5470721780 0.8509533894
6.7381053668 -0.5618027502 0.8468511487
6.8322021826 -0.5812885389 0.8471693137
6.7457122974 -0.5645158459 0.8461173404
6.6285578471 -0.5422278274 0.8444044593
6.6776892606 -0.5449451213 0.8495482630
6.8637869674 -0.5551759106 0.8690728799
6.7232057909 -0.5464844613 0.8549664614
6.6908680338 -0.5462873571 0.8505185798
6.8315679691 -0.5539903034 0.8653016632
6.6431949528 -0.5607486425 0.8341142169
6.6779169917 -0.5677605681 0.8343507031
6.7437305496 -0.5757802048 0.8383174917
6.6671210487 -0.5555657132 0.8409621895
6.6003378998 -0.5694254397 0.8222531356
6.6400815660 -0.5496637015 0.8410727631
6.6100168112 -0.5696924673 0.8234455511
6.6305119392 -0.5697893782 0.8262832430
6.8387231751 -0.5889692470 0.8429351680
6.7675826124 -0.5920709155 0.8303046691
6.6481933314 -0.5835124627 0.8191418520
6.7696320923 -0.6019114142 0.8234295735
6.7488168613 -0.5954821726 0.8250825575
6.7525764468 -0.5973556613 0.8242647569
6.8306150739 -0.6118412782 0.8250793959
6.7692904954 -0.5914974001 0.8309717064
6.7135063595 -0.5876225905 0.8256654636
6.6694638320 -0.5876167419 0.8192501490
6.6756348323 -0.5936845427 0.8157261295
6.6673062004 -0.5927828720 0.8151694858
6.5845332722 -0.5755186435 0.8156904234
6.5875586255 -0.5790397422 0.8135644720
6.5631546288 -0.6009628705 0.7940251442
6.7749995100 -0.6081186597 0.8196867734
6.7503351635 -0.6086954453 0.8156712406
6.5732342400 -0.5766127252 0.8132458895
6.6323366800 -0.5882391975 0.8133847593
6.7606632896 -0.6225415272 0.8067370526
6.6796884115 -0.6187410765 0.7975756812
6.6494928333 -0.6180405832 0.7935901136
6.6428899555 -0.6136795741 0.7960609547
6.7804138180 -0.6369817148 0.7982377691
6.7723629116 -0.6313291954 0.8015166724
6.8439021217 -0.6501118256 0.7973580915
6.8601270167 -0.6538427202 0.7968350957
6.6834706754 -0.6167487917 0.7997271173
6.5606506297 -0.6199405423 0.7787174160
6.5861989492 -0.6096888781 0.7907034530
6.6010846582 -0.6132011416 0.7901526826
6.6839634064 -0.6306487013 0.7887602590
6.6957139607 -0.6281112387 0.7925433165
6.5843943943 -0.6341756117 0.7709817318
6.5911130812 -0.6371468875 0.7696322061
6.5763797895 -0.6066509202 0.7916395766
6.7336491257 -0.6375299278 0.7907680266
6.7834896566 -0.6641818541 0.7762416467
6.8058886331 -0.6773055100 0.7683885664
6.8332640695 -0.6807059333 0.7697116651
6.8004316329 -0.6560902405 0.7858705635
6.7621147500 -0.6578961672 0.7783456630
6.7275880747 -0.6579025627 0.7729656691
6.6549720651 -0.6436425908 0.7739837544
6.7911630613 -0.6617790499 0.7795122858
6.8360621542 -0.6707926366 0.7787129836
6.6877850885 -0.6751324408 0.7518820651
6.7632549679 -0.6768770051 0.7621224017
6.5992783677 -0.6543791562 0.7560372552
6.7570242932 -0.6715167863 0.7657841284
6.5875038910 -0.6424759728 0.7644896033
6.6456742467 -0.6634823810 0.7553934897
6.5878698070 -0.6541920460 0.7544230567
6.7107800116 -0.6761337380 0.7545963009
6.6638482089 -0.6607173693 0.7606116410
6.8432633946 -0.7015987121 0.7522430791
6.7494914297 -0.6962191877 0.7421437580
6.8025005889 -0.7053057775 0.7421761902
6.7717778578 -0.6869503872 0.7544478412
6.8273418364 -0.6875425203 0.7628692438
6.8175462679 -0.7066290943 0.7433645250
6.8705866480 -0.6943811422 0.7634348759
6.6642514485 -0.6771790210 0.7462501162
6.8020684023 -0.7065335832 0.7409534677
6.6799596165 -0.6798389948 0.7462903839
6.6090842836 -0.6861679096 0.7288964160
6.5785618878 -0.6886492311 0.7216350537
6.7904481919 -0.7119169632 0.7340210999
6.6673576093 -0.6873713944 0.7371814707
6.5737123430 -0.6752467027 0.7334362698
6.6361606399 -0.6975510888 0.7225824769
6.6016751905 -0.6760085156 0.7372388425
6.6474555340 -0.6935522862 0.7281621787
6.6649065172 -0.6894586990 0.7348255088
6.8440344041 -0.7247263775 0.7302429429
6.6131861160 -0.7029385630 0.7136276205
6.8757703673 -0.7479548332 0.7118901012
6.8089030546 -0.7362112851 0.7126182683
6.6821341280 -0.7063692932 0.7217282609
6.7876892962 -0.7210962266 0.7244660232
6.8717366549 -0.7334395948 0.7260164434
6.6883216158 -0.7132753871 0.7157253012
6.7269712602 -0.7125483323 0.7229693060
6.5677389996 -0.7075688818 0.7012588258
6.6619959138 -0.7170630443 0.7074329876
6.5587424066 -0.7082498461 0.6990506765
6.6345208395 -0.7267452413 0.6929350994
6.5790171326 -0.7129333096 0.6976847573
6.5966542272 -0.7236888761 0.6896817720
6.7395990051 -0.7342396964 0.7029694589
6.5976998985 -0.7162299464 0.6974655153
6.6197248966 -0.7215307976 0.6957643515
6.8057757128 -0.7555957072 0.6914910546
6.7561685995 -0.7478887961 0.6913098442
6.7567796400 -0.7589254455 0.6791879642
6.8206820958 -0.7520392224 0.6980524120
6.7037260456 -0.7470883856 0.6829773254
6.6210887652 -0.7312848866 0.6859609256
6.8220164653 -0.7617286712 0.6875504764
6.8802328991 -0.7571747989 0.7028309277
6.6677581681 -0.7367581941 0.6881006584
6.6271673581 -0.7427161792 0.6743629411
6.5993645973 -0.7416064782 0.6707048135
6.6992031153 -0.7636496282 0.6638312621
6.7356421269 -0.7601165044 0.6741522022
6.5691005728 -0.7471167056 0.6592786818
6.6703913897 -0.7503457268 0.6735077261
6.5778234996 -0.7472994549 0.6606096815
6.6480863131 -0.7516484166 0.6681430099
6.8253451228 -0.7738071090 0.6747519821
6.8397608741 -0.7880499493 0.6604927443
6.7355686872 -0.7775693835 0.6539047089
6.8542689669 -0.7794969749 0.6734712464
6.8528234070 -0.7952002551 0.6542880204
6.7929084651 -0.7861982876 0.6540836338
6.7514478224 -0.7822771499 0.6511617314
6.8702526968 -0.7846053942 0.6702649175
6.6658166528 -0.7665984513 0.6542582187
6.7808561104 -0.7837962795 0.6547546890
6.7081315979 -0.7714532111 0.6562129858
6.6011503577 -0.7783108394 0.6282244722
6.6254652818 -0.7826147488 0.6275235700
6.5797455571 -0.7589266821 0.6476281795
6.6022454881 -0.7737614477 0.6339067664
6.6013371112 -0.7759660794 0.6310834863
6.6936073622 -0.7799764371 0.6432673338
6.6476981714 -0.7788900607 0.6361102529
6.6132939359 -0.7747257555 0.6347824896
6.7194079025 -0.7899124511 0.6360557612
6.8000209789 -0.8048319078 0.6325464870
6.7154011234 -0.7953215455 0.6285813242
6.8166835286 -0.8039535839 0.6369347469
6.7288081216 -0.8062200530 0.6168939723
6.8556610320 -0.8158408912 0.6289175062
6.5786650752 -0.7822560188 0.6191552234
6.8510826395 -0.8099909604 0.6356993756
6.7753051513 -0.8089781526 0.6223086701
6.7492426797 -0.8076366599 0.6190054959
6.6035846827 -0.7888813079 0.6153076381
6.6154322166 -0.7909433674 0.6149048414
6.5584858730 -0.7866542129 0.6094682206
6.7310772306 -0.8116401448 0.6102272203
6.6892155133 -0.8043131558 0.6117041756
6.6412172574 -0.7941698429 0.6156822988
6.8189955692 -0.8260873869 0.6083592130
6.7448603102 -0.8140464118 0.6097490108
6.6458457145 -0.8029657171 0.6050470822
6.7202525034 -0.8234865331 0.5920726268
6.7744361554 -0.8305253445 0.5931428462
6.8731342828 -0.8497470437 0.5859383841
6.8420724216 -0.8436703060 0.5882448814
6.7535334770 -0.8280417199 0.5923984903
6.7350374604 -0.8241817597 0.5941173504
6.6723783965 -0.8186448195 0.5891569213
6.7219833294 -0.8308578547 0.5818854760
6.6353264604 -0.8118615597 0.5912426578
6.7432577233 -0.8452106914 0.5657301640
6.6044983386 -0.8280929282 0.5616907760
6.7006403192 -0.8334437816 0.5737998275
6.6784370179 -0.8269645365 0.5785029082
6.8287502605 -0.8526117538 0.5727178677
6.5971531212 -0.8302507219 0.5570947443
6.7745822639 -0.8453994270 0.5718990422
6.6135926777 -0.8264737932 0.5658759206
6.7008321706 -0.8341017413 0.5728982089
6.7434471127 -0.8519161764 0.5553102080
6.7190015693 -0.8512656583 0.5509823839
6.7073481220 -0.8471663273 0.5548461757
6.8032581712 -0.8645120040 0.5486869026
6.7620707645 -0.8577440271 0.5502668772
6.7948217435 -0.8615815270 0.5514258744
6.5937382874 -0.8309061906 0.5554372163
6.8487228164 -0.8641032999 0.5592676054
6.8215813435 -0.8589483905 0.5613958243
6.7283232094 -0.8497900767 0.5553287107
6.7044369571 -0.8595244033 0.5348796952
6.6402606456 -0.8518746144 0.5328121219
6.6433164308 -0.8440793319 0.5456733366
6.7139448411 -0.8553121885 0.5435472780
6.5745196350 -0.8488441450 0.5231770765
6.5924743655 -0.8428899865 0.5364163464
6.8070661453 -0.8728715288 0.5364439995
6.5770780997 -0.8462972331 0.5277202834
6.5670602286 -0.8477865715 0.5232001841
6.7928510876 -0.8877353186 0.5078472879
6.8660591802 -0.8930092634 0.5159240316
6.8830850512 -0.8835754913 0.5361015326
6.6897130465 -0.8653451446 0.5221483728
6.8260851257 -0.8792752059 0.5301459546
6.7053678876 -0.8656654594 0.5252615738
6.6178704661 -0.8564200712 0.5206585311
6.6401108582 -0.8595854811 0.5204288881
6.7384306516 -0.8758588264 0.5155003084
6.6610383041 -0.8806731071 0.4891275038
6.7732272322 -0.8922428653 0.4955180963
6.6145973887 -0.8671138556 0.5015361665
6.6062989916 -0.8745252292 0.4868724034
6.6636577385 -0.8673031033 0.5126907932
6.6164411532 -0.8665824762 0.5028797265
6.7245783932 -0.8779401235 0.5086863774
6.7235516731 -0.8818936185 0.5016597381
6.5989372882 -0.8710696821 0.4910815052
6.8688996097 -0.9023630749 0.5004965155
6.7736907713 -0.9015297955 0.4780726275
6.8738949605 -0.9204704591 0.4674917940
6.8172938742 -0.9095397965 0.4739072488
6.7346293984 -0.8948498224 0.4808661406
6.8307186273 -0.8995104448 0.4962696137
6.6817134903 -0.8901531051 0.4764142942
6.7635796849 -0.8988664843 0.4805634702
6.6569039770 -0.8826990315 0.4842652839
6.5802283509 -0.8769399437 0.4758342398
6.5577828246 -0.8737565457 0.4761998990
6.5830790136 -0.8754164250 0.4794357667
6.8308933477 -0.9158030206 0.4654837776
6.7645572983 -0.9070771151 0.4652731945
6.6324368804 -0.8869073985 0.4701341218
6.5737829969 -0.8873937465 0.4544279975
6.7251641358 -0.9056996805 0.4579492150
6.6572933915 -0.8875315744 0.4752189876
6.8599756287 -0.9331797870 0.4374604688
6.7548750535 -0.9106553295 0.4559440694
6.6448043992 -0.9006904499 0.4467195659
6.7878388521 -0.9256804234 0.4334471810
6.8084872755 -0.9196057056 0.4518427859
6.6816048916 -0.9032834597 0.4513530884
6.7152421059 -0.9072267996 0.4522880028
6.7149998421 -0.9068465360 0.4530194121
6.7287398159 -0.9158288824 0.4379370692
6.7722573515 -0.9277626275 0.4248141051
6.8452306876 -0.9369520624 0.4255108978
6.6868708205 -0.9139502103 0.4304176615
6.5681606976 -0.8947663174 0.4381681147
6.6302672291 -0.9017601452 0.4404963765
6.6765692171 -0.9176591929 0.4198171545
6.8144085267 -0.9317647699 0.4279561121
6.5608465963 -0.9054994528 0.4136500441
6.5793245446 -0.8992212856 0.4318782519
6.6543318185 -0.9207815847 0.4063536266
6.7750704185 -0.9333841110 0.4130531527
6.6979802527 -0.9252056119 0.4090846329
6.7328683236 -0.9313325325 0.4051987500
6.6128972851 -0.9140216141 0.4097585287
6.7199667792 -0.9300366848 0.4043638817
6.7186794270 -0.9274927943 0.4099365611
6.7120806346 -0.9241526270 0.4157810966
6.6729366906 -0.9211154605 0.4111527625
6.8363663412 -0.9478847979 0.3974743697
6.7404660516 -0.9392922346 0.3888329660
6.6264286834 -0.9182875251 0.4038251987
6.6395774174 -0.9233672691 0.3958707242
6.7343681907 -0.9354988772 0.3958893463
6.6221510655 -0.9243052491 0.3884458920
6.6630117299 -0.9313902926 0.3841073764
6.6511604324 -0.9289509663 0.3862660809
6.5975144985 -0.9269397594 0.3748840898
6.6773295486 -0.9351436591 0.3796105541
6.7905099532 -0.9572912340 0.3591082733
6.7890864191 -0.9520741391 0.3724055515
6.7539555936 -0.9518847394 0.3612261642
6.7527171198 -0.9449125625 0.3792175096
6.7660212278 -0.9536957198 0.3604573196
6.8749435705 -0.9614441550 0.3762167410
6.7820768429 -0.9544823985 0.3637185983
6.7611455455 -0.9510102216 0.3659247691
6.8550914212 -0.9657542522 0.3582403448
6.6504305201 -0.9478102316 0.3375638153
6.6176575726 -0.9335041087 0.3644293619
6.7349030196 -0.9523495362 0.3536652807
6.6137449925 -0.9433039426 0.3372620139
6.5629966371 -0.9300428822 0.3553931881
6.8634006567 -0.9709407341 0.3473130349
6.7905735455 -0.9606228536 0.3503356057
6.7024666148 -0.9511500669 0.3460477704
6.5801821408 -0.9332254254 0.3527062143
6.6279676040 -0.9464130232 0.3334657755
6.7634105492 -0.9612530515 0.3393957816
6.7845347119 -0.9641433487 0.3385878670
6.8135527372 -0.9750754211 0.3165276646
6.8519460415 -0.9802713119 0.3152315411
6.7700377122 -0.9661312903 0.3271906379
6.7741698773 -0.9670605532 0.3259375398
6.7807636633 -0.9647650361 0.3353084537
6.8104686098 -0.9678882153 0.3370047137
6.5693304636 -0.9510430773 0.2976304542
6.6468018110 -0.9547546638 0.3153973358
6.6054627932 -0.9474943684 0.3218057946
6.5758253754 -0.9426530607 0.3253052573
6.6088546167 -0.9529952943 0.3065182248
6.5981288975 -0.9552686579 0.2956705866
6.6900900567 -0.9623380496 0.3087446317
6.6107405362 -0.9565668134 0.2964745280
6.5964074533 -0.9482372359 0.3161879310
6.6934842214 -0.9675217267 0.2936925211
6.7407310709 -0.9771404205 0.2803497623
6.7833479345 -0.9768031162 0.2997216452
6.8443738911 -0.9862663365 0.2928040353
6.7365611731 -0.9726425088 0.2942422174
6.5827668336 -0.9537712517 0.2943317681
6.7320971043 -0.9733972269 0.2897063433
6.6101343076 -0.9570949038 0.2944359084
6.8598571955 -0.9880467010 0.2932114391
6.7283746334 -0.9737173123 0.2870015886
6.6525377973 -0.9691205115 0.2706383471
6.6338088248 -0.9694125267 0.2616239820
6.7288019700 -0.9800733875 0.2650364574
6.8404294679 -0.9929979217 0.2676637237
6.5983959727 -0.9596064425 0.2806724988
6.5714678736 -0.9569874034 0.2783007725
6.8089452126 -0.9899461399 0.2648545009
6.7366421334 -0.9787957984 0.2728357501
6.6005701052 -0.9589316737 0.2839520155
6.7866058581 -0.9925729947 0.2433484639
6.7533501579 -0.9865158508 0.2516963480
6.8609478796 -1.0005415945 0.2476405900
6.8040313457 -0.9901644830 0.2619707623
6.8542714310 -1.0003256554 0.2451966256
6.7332072374 -0.9855142116 0.2457653118
6.8488064204 -0.9993485440 0.2464931648
6.8493736077 -0.9958971965 0.2609941325
6.7935719743 -0.9926317257 0.2465846742
6.7425535241 -0.9911962276 0.2270247742
6.6716003196 -0.9810833182 0.2332581124
6.6569301351 -0.9806770241 0.2276069867
6.7992865301 -0.9988391567 0.2238664191
6.5679864494 -0.9648917551 0.2482251115
6.5975632057 -0.9692509731 0.2450349227
6.5803137343 -0.9707694947 0.2301666034
6.6522502007 -0.9766569000 0.2418313271
6.7401977775 -0.9910196509 0.2265759565
6.7952601084 -0.9991725267 0.2204206342
6.8465545601 -1.0094289945 0.1998773830
6.8809123093 -1.0094948920 0.2202430274
6.8334656650 -1.0090740746 0.1937731065
6.7542255208 -0.9976269571 0.2034543846
6.7670060930 -0.9969004477 0.2147968754
6.8643609717 -1.0087013205 0.2142531416
6.7945316548 -1.0021034398 0.2052817555
6.8107840862 -1.0014427754 0.2183853510
6.6820570032 -0.9904983656 0.1957358189
6.6106204477 -0.9797876906 0.2064240627
6.5692676680 -0.9779119835 0.1909222616
6.7491321631 -1.0000910346 0.1880277430
6.5889788013 -0.9808590055 0.1880148425
6.5782563182 -0.9817526293 0.1770741062
6.6431894222 -0.9857845859 0.1959652202
6.6180777605 -0.9861654471 0.1789287338
6.6188560366 -0.9850178249 0.1851533805
6.8264141677 -1.0134260407 0.1643685607
6.8408195418 -1.0158603943 0.1597943069
6.8134027570 -1.0138541278 0.1517399446
6.6405790343 -0.9910755361 0.1656134283
6.7443204048 -1.0050442124 0.1554013999
6.8035066046 -1.0112106709 0.1610783354
6.8701828613 -1.0189613401 0.1623449525
6.7284130976 -1.0008021068 0.1703671735
6.8318516059 -1.0160091929 0.1520233535
6.6894765337 -0.9964332854 0.1686239336
6.6934895929 -0.9992369729 0.1537881466
6.6679422561 -0.9970426812 0.1483554197
6.6156085913 -0.9880286039 0.1660596486
6.6473993295 -0.9958120337 0.1405810210
6.6874155669 -1.0010321477 0.1377140416
6.6605340158 -0.9945594468 0.1585640519
6.5743907716 -0.9838987158 0.1610566312
6.6999978498 -1.0000137840 0.1537824575
6.6344628728 -0.9920209575 0.1549289747
6.8463999632 -1.0203139728 0.1346342979
6.6657695692 -0.9996885594 0.1277505078
6.7122705857 -1.0051732425 0.1279965778
6.8417966237 -1.0232484425 0.1042732889
6.8732281997 -1.0240007314 0.1302186201
6.8113464113 -1.0167573631 0.1294075088
6.8239796538 -1.0184908885 0.1273504007
6.8679838917 -1.0250084060 0.1160038345
6.8553050413 -1.0218727502 0.1302458039
6.7173628791 -1.0080241938 0.1083918883
6.5635888111 -0.9887565392 0.1174393773
6.6403861310 -0.9992411723 0.1054004805
6.8373975822 -1.0233772332 0.0985999961
6.6906338074 -1.0056647661 0.1013305998
6.5580531924 -0.9871173443 0.1260143300
6.5787381900 -0.9920383943 0.1044770900
6.6476917758 -0.9988507188 0.1163626885
6.5905316326 -0.9920806875 0.1163055893
6.8195343081 -1.0228780058 0.0780300816
6.6912780130 -1.0078100964 0.0769521213
6.7343662492 -1.0123724583 0.0841676632
6.8038601902 -1.0220192987 0.0644219043
6.7548454779 -1.0149933181 0.0813927752
6.8830285688 -1.0297035591 0.0872569753
6.8810820178 -1.0311461608 0.0643218462
6.8715750907 -1.0281292888 0.0902967031
6.7169944684 -1.0102037091 0.0857750815
6.5915830782 -0.9956580965 0.0821420963
6.6022225740 -0.9988821655 0.0551604702
6.8256400193 -1.0250499205 0.0581341847
6.8203905425 -1.0243863806 0.0587320721
6.6309423267 -1.0001822781 0.0838421124
6.5857702528 -0.9966356246 0.0593236714
6.6853999850 -1.0071440008 0.0765671481
6.7344782289 -1.0146204274 0.0535223634
6.7581722474 -1.0167314545 0.0629450097
6.8549933330 -1.0292558886 0.0405065568
6.7832411310 -1.0210017715 0.0341110892
6.8036064754 -1.0236387912 0.0265745930
6.8423184192 -1.0276360349 0.0445180927
6.8154679752 -1.0244527057 0.0451296507
6.8407109795 -1.0276797699 0.0371083245
6.8672159952 -1.0309002180 0.0340234960
6.6341036004 -1.0029629964 0.0488648290
6.8193944242 -1.0247107858 0.0516324000
6.7078899338 -1.0125842616 0.0194297224
6.7370399070 -1.0157116915 0.0292066814
6.6098082762 -1.0005312316 0.0351603030
6.7132509470 -1.0134500383 0.0119921098
6.8016614148 -1.0236541665 0.0188016526
6.6272460570 -1.0031755026 0.0164292714
6.5631507451 -0.9952628374 0.0278575708
6.7796626720 -1.0210653155 0.0186902010
6.6369501334 -1.0042466861 0.0187288135
6.8431698450 -1.0285938797 -0.0085402107
6.8624151866 -1.0309395843 -0.0005633245
6.7810933228 -1.0212957409 -0.0071466587
6.8248166046 -1.0265150591 -0.0001422760
6.8426947633 -1.0286090587 -0.0013409374
6.7922438737 -1.0226541983 -0.0025876292
6.7049460988 -1.0123968387 -0.0000245709
6.7470931399 -1.0174190699 0.0058237096
6.8568004004 -1.0300153108 -0.0271706850
6.8115500164 -1.0250204813 0.0067470524
6.6225470854 -1.0026229641 -0.0069283943
6.6570200022 -1.0066583248 -0.0094740885
6.7245284169 -1.0145158943 -0.0190027466
6.5784250730 -0.9975676395 0.0074176779
6.5773461702 -0.9974064396 0.0039645022
6.7032638847 -1.0120706371 -0.0129845896
6.7024973545 -1.0119061770 -0.0204918175
6.6889454765 -1.0103133500 -0.0201448498
6.5791438767 -0.9975591669 -0.0020093408
6.8453978353 -1.0268794719 -0.0655852491
6.8693881194 -1.0305782614 -0.0486239058
6.8249233556 -1.0244454183 -0.0659626828
6.7418005094 -1.0155627708 -0.0480024308
6.7111599800 -1.0120155410 -0.0467064147
6.7479074785 -1.0159440664 -0.0546146877
6.8582780897 -1.0285415871 -0.0627945379
6.7878021125 -1.0214031546 -0.0399049734
6.6961358147 -1.0102745614 -0.0461030022
6.6614443966 -1.0056901131 -0.0557208869
6.5603129903 -0.9947103837 -0.0372379783
6.8267318342 -1.0245370259 -0.0683363960
6.6633756722 -1.0063355339 -0.0475734876
6.6788340681 -1.0077815893 -0.0549292701
6.5736602692 -0.9956973744 -0.0486920267
6.7006093549 -1.0097251951 -0.0671122067
6.6712191466 -1.0069164181 -0.0542871855
6.6244332446 -1.0015651360 -0.0510384554
6.8004781354 -1.0196797155 -0.0896358294
6.8336452937 -1.0248159694 -0.0765683800
6.7498341288 -1.0136572963 -0.0899781732
6.7636160245 -1.0159784582 -0.0825346981
6.7482400249 -1.0130213514 -0.0947979781
6.7438962300 -1.0131872593 -0.0874749414
6.7722317080 -1.0166049436 -0.0867649596
6.8225439468 -1.0236421835 -0.0750667346
6.8288948130 -1.0218165753 -0.1028281785
6.6577987751 -1.0014283631 -0.1044378078
6.6354693746 -1.0006949326 -0.0838830311
6.8561588909 -1.0239799686 -0.1142658365
6.7875363381 -1.0163847983 -0.1086406385
6.6807018146 -1.0033861769 -0.1125326848
6.8136102642 -1.0191906243 -0.1116403765
6.6855287879 -1.0060954268 -0.0894959331
6.8208765040 -1.0202639020 -0.1093374180
6.6660985468 -1.0039656526 -0.0876793867
6.7774482184 -1.0109231443 -0.1424199478
6.6130702809 -0.9944500424 -0.1196824943
6.8531553728 -1.0212959068 -0.1322100221
6.8589129939 -1.0237261381 -0.1192477832
6.7896638827 -1.0132128100 -0.1361994319
6.8347886352 -1.0208282930 -0.1194760745
6.6443351156 -0.9982448628 -0.1190952096
6.8163600694 -1.0146018167 -0.1494421762
6.7584028951 -1.0120613154 -0.1171656896
6.8128075162 -1.0150813654 -0.1427474046
6.5730150488 -0.9888441513 -0.1259592591
6.7067777916 -1.0027252529 -0.1409273306
6.6341620490 -0.9964065374 -0.1237671599
6.6086179459 -0.9938671151 -0.1200817840
6.6774427076 -0.9973584697 -0.1548876005
6.6203275874 -0.9914818897 -0.1481215887
6.6424563270 -0.9945504114 -0.1448654296
6.7724332321 -1.0087941359 -0.1538010187
6.7678939215 -1.0090077302 -0.1482101273
6.8768900340 -1.0190008264 -0.1675133155
6.8678274399 -1.0160671513 -0.1779607287
6.7849836181 -1.0086393038 -0.1639445329
6.8747280878 -1.0148479596 -0.1895093038
6.8292835782 -1.0110489526 -0.1802640349
6.8039222629 -1.0105736725 -0.1658139568
6.6555893889 -0.9944269759 -0.1567987546
6.7762163190 -1.0058162948 -0.1739663779
6.6620774005 -0.9954030831 -0.1556688352
6.6762102554 -0.9905867832 -0.1924214354
6.6564968496 -0.9893679076 -0.1859872060
6.6023658802 -0.9819396428 -0.1913724910
6.7666070539 -1.0004814311 -0.1976072446
6.5576661263 -0.9784827775 -0.1806978263
6.7898932886 -1.0049982265 -0.1878275074
6.6229391320 -0.9885076258 -0.1681739323
6.6516729077 -0.9901260553 -0.1784457294
6.6011729617 -0.9850732808 -0.1728665865
6.8105084450 -0.9992785054 -0.2273143484
6.8592830062 -1.0057124205 -0.2248067154
6.8255204881 -1.0030826905 -0.2182525016
6.8328730066 -1.0036485093 -0.2197110111
6.7669242515 -0.9990341375 -0.2045345867
6.8400047468 -1.0024499484 -0.2290678865
6.8131852008 -1.0027699068 -0.2129126281
6.7146040057 -0.9930179168 -0.2032001841
6.7722289178 -0.9980887522 -0.2117392377
6.7883122849 -0.9938848045 -0.2396628445
6.7083600200 -0.9878348883 -0.2233352493
6.6176075721 -0.9748189111 -0.2327494001
6.5688858466 -0.9692482736 -0.2313622547
6.5746706990 -0.9709370931 -0.2268572476
6.5990928266 -0.9742480408 -0.2251953390
6.5808339313 -0.9747013385 -0.2131265213
6.6505937085 -0.9792052164 -0.2308941408
6.8037079164 -0.9957099137 -0.2398064747
6.8103633983 -0.9897440366 -0.2656457243
6.8714650943 -0.9936813861 -0.2789356274
6.7662474097 -0.9844546018 -0.2653257817
6.8828042360 -0.9991044860 -0.2636124127
6.6699260804 -0.9773713381 -0.2476979356
6.8044373347 -0.9933143373 -0.2493735967
6.8346636483 -0.9937882914 -0.2615353516
6.7068736422 -0.9806382958 -0.2523749487
6.8648729941 -0.9989791577 -0.2558068633
6.7851856002 -0.9932733796 -0.2406383815
6.6360362478 -0.9732130896 -0.2478119738
6.6897565948 -0.9777817303 -0.2552998544
6.6041261210 -0.9649298789 -0.2644783841
6.7611887653 -0.9814682202 -0.2743113877
6.6115496684 -0.9631264709 -0.2747434896
6.6332731668 -0.9686787666 -0.2637260750
6.8255019629 -0.9887161227 -0.2765336888
6.6228425552 -0.9708779005 -0.2505720678
6.7927522170 -0.9844845746 -0.2774520861
6.8170586231 -0.9858583718 -0.2832653948
6.8475362686 -0.9885632538 -0.2866747986
6.8182021754 -0.9763573655 -0.3145195592
6.6574664173 -0.9656618158 -0.2849676454
6.6950972912 -0.9683340995 -0.2913407564
6.8717287293 -0.9828921347 -0.3147235727
6.7275788614 -0.9716215060 -0.2936625814
6.6754068032 -0.9675733794 -0.2859393635
6.6830574619 -0.9679875598 -0.2876535955
6.5839991149 -0.9522959544 -0.2989392586
6.7689639882 -0.9698849789 -0.3158267559
6.8085171813 -0.9738412615 -0.3188058633
6.6653509270 -0.9628815971 -0.2971298900
6.5991952227 -0.9502829997 -0.3115357641
6.6716378396 -0.9616473297 -0.3036426586
6.8047907498 -0.9723945177 -0.3220065766
6.6204856916 -0.9530509388 -0.3110700636
6.6323820414 -0.9564918659 -0.3046694997
6.7175779946 -0.9573977441 -0.3335878393
6.7949959241 -0.9668554612 -0.3341985915
6.8798178466 -0.9803646779 -0.3259875410
6.6629276746 -0.9534689107 -0.3254038093
6.8737480796 -0.9720049520 -0.3474367939
6.7122607702 -0.9594440589 -0.3259386083
6.7344055112 -0.9616574350 -0.3275014223
6.7463316387 -0.9638047710 -0.3256473674
6.7597393568 -0.9601168916 -0.3407815943
6.5642346038 -0.9384230677 -0.3330597536
6.8236286064 -0.9619639441 -0.3580977776
6.7361190685 -0.9535442515 -0.3509994775
6.7512328643 -0.9574799415 -0.3452230541
6.6415713468 -0.9481161162 -0.3329778287
6.6311196705 -0.9476443142 -0.3306237616
6.5665091718 -0.9433984704 -0.3198221808
6.5982799498 -0.9466425719 -0.3218707595
6.6190473090 -0.9456118310 -0.3321021569
6.7814609012 -0.9548946258 -0.3629284813
6.8359500040 -0.9583713869 -0.3714920797
6.7489865619 -0.9459391957 -0.3749632767
6.7900570943 -0.9471395161 -0.3849541940
6.7541355458 -0.9495486030 -0.3676036314
6.6333130800 -0.9371099897 -0.3603903395
6.8662153075 -0.9612418593 -0.3739097902
6.8785528051 -0.9522544575 -0.4001860903
6.7264851951 -0.9431617334 -0.3747676247
6.6008258578 -0.9326318170 -0.3612733660
6.7161835583 -0.9395035422 -0.3806203387
6.7950517209 -0.9417855973 -0.3998630954
6.5677768929 -0.9219934453 -0.3773168251
6.7784533393 -0.9442168825 -0.3885639726
6.5580812128 -0.9276517985 -0.3601642549
6.8388515248 -0.9466892755 -0.4014957445
6.7485924072 -0.9426110161 -0.3831253777
6.5947978853 -0.9256413664 -0.3767735064
6.8761952962 -0.9366322551 -0.4346820173
6.8471690320 -0.9350092697 -0.4299610266
6.8556198079 -0.9396100616 -0.4221712235
6.6527447657 -0.9209567271 -0.4054012044
6.6916545430 -0.9266051231 -0.4040205363
6.6829739475 -0.9266858670 -0.4013519695
6.6018888921 -0.9198406485 -0.3932948864
6.8607460287 -0.9394841829 -0.4239207002
6.6508059197 -0.9237263957 -0.3986968616
6.8227149560 -0.9329443574 -0.4275322231
6.5697191303 -0.9154618855 -0.3937899484
6.6213461621 -0.9074884492 -0.4262951361
6.6606902244 -0.9210925789 -0.4073781406
6.7121339494 -0.9168968707 -0.4314446236
6.6094964474 -0.9126036279 -0.4115418730
6.5871247430 -0.9112752164 -0.4080752836
6.6556196076 -0.9164248237 -0.4162859432
6.6937552020 -0.9192109572 -0.4210371492
6.7610338534 -0.9223990575 -0.4332533647
6.8137524577 -0.9166117885 -0.4591105588
6.8655919884 -0.9240887258 -0.4578191069
6.7852530891 -0.9151446845 -0.4545460549
6.8785934510 -0.9165627023 -0.4762537618
6.8482984737 -0.9233097666 -0.4548273015
6.7134578637 -0.9139765060 -0.4380035763
6.7734214799 -0.9214228244 -0.4389088610
6.8208524890 -0.9252162664 -0.4438082748
6.8412465502 -0.9167772052 -0.4660080863
6.6063591947 -0.9005475156 -0.4366449027
6.6239924342 -0.8892290710 -0.4638642677
6.6544379348 -0.8955695782 -0.4592163430
6.7639797264 -0.9051704445 -0.4688556063
6.6317394774 -0.8953481049 -0.4536913320
6.6437225771 -0.8920239572 -0.4634741791
6.7305615007 -0.9066451568 -0.4571281638
6.6191060522 -0.8923529960 -0.4563465000
6.5636054207 -0.8967250293 -0.4330329844
6.7776132525 -0.8971917467 -0.4872079550
6.7818658187 -0.8920158350 -0.4975840446
6.8153591729 -0.8973187219 -0.4961527078
6.8482973693 -0.9008920425 -0.4977083118
6.7884908813 -0.8962111286 -0.4916217210
6.6570215977 -0.8857268756 -0.4785929059
6.6004693402 -0.8846014488 -0.4668795802
6.8700520471 -0.8980182687 -0.5081828344
6.7530930034 -0.8999021929 -0.4763560816
6.6018344383 -0.8708017290 -0.4921198539
6.7237622936 -0.8792938266 -0.5064255235
6.6151592499 -0.8773475997 -0.4835430821
6.7334587279 -0.8822416986 -0.5034612812
6.7629458170 -0.8840280117 -0.5074036633
6.8046774277 -0.8880547081 -0.5102781189
6.6658924372 -0.8801537271 -0.4908084488
6.8135716081 -0.8884526968 -0.5117214318
6.5865577047 -0.8638236419 -0.5010023720
6.8270133714 -0.8849257216 -0.5208802275
6.8372244001 -0.8874965035 -0.5189725659
6.6109182155 -0.8652241467 -0.5042989216
6.7867604831 -0.8730587370 -0.5312440040
6.7766410902 -0.8732709014 -0.5286052506
6.7441146100 -0.8791494850 -0.5115952720
6.7188563129 -0.8667617705 -0.5262077166
6.8710926348 -0.8723026965 -0.5515736828
6.8226131987 -0.8812417353 -0.5259301049
6.6585048073 -0.8702415657 -0.5068361378
6.8333631466 -0.8680753601 -0.5499710394
6.7698408284 -0.8607192698 -0.5476647550
6.6274134177 -0.8604952334 -0.5157934057
6.6116296251 -0.8524966227 -0.5253473847
6.6618437340 -0.8562408478 -0.5305688173
6.6674562113 -0.8573004401 -0.5301003029
6.6057453680 -0.8589364980 -0.5134468315
6.6010278402 -0.8523282158 -0.5232240041
6.5680195176 -0.8489029117 -0.5213737822
6.7837176123 -0.8516029117 -0.5643607687
6.7263126136 -0.8437302492 -0.5639762979
6.8533795681 -0.8543938318 -0.5749583755
6.8419812853 -0.8582884334 -0.5667058356
6.8026502620 -0.8489580439 -0.5723395075
6.7730410031 -0.8525793409 -0.5606329825
6.7123618946 -0.8474435339 -0.5554538916
6.8532736991 -0.8567765901 -0.5713663559
6.7125059337 -0.8518368983 -0.5489028431
6.6054635486 -0.8234809835 -0.5686734226
6.6553917802 -0.8374061622 -0.5584045813
6.5730938721 -0.8283647962 -0.5544899394
6.5976550709 -0.8304507616 -0.5565756026
6.5969090514 -0.8200518724 -0.5719956808
6.5582652385 -0.8272265573 -0.5530492493
6.5797052444 -0.8249636525 -0.5609877044
6.8260401022 -0.8450869754 -0.5831007734
6.6393166077 -0.8241446832 -0.5748609971
6.8286849038 -0.8319157241 -0.6020778124
6.8421302251 -0.8230297185 -0.6169552114
6.7524115800 -0.8271759153 -0.5933293956
6.8155643331 -0.8286338328 -0.6039563250
6.8028419160 -0.8308594417 -0.5983596812
6.7998538564 -0.8275339397 -0.6023239140
6.8288578137 -0.8237523918 -0.6133102126
6.7097376924 -0.8248132045 -0.5880381448
6.8138787300 -0.8234449369 -0.6107370311
6.7005591933 -0.8146579449 -0.6001331776
6.5710199843 -0.7937952100 -0.6028508776
6.6033267529 -0.8059431133 -0.5926467916
6.7468107145 -0.8144018251 -0.6097320474
6.5893769827 -0.8004371480 -0.5974103082
6.6780751513 -0.8039315943 -0.6103512519
6.6619946368 -0.8140064031 -0.5933162990
6.5956191850 -0.8089578689 -0.5869703394
6.6964989102 -0.8181629844 -0.5945134330
6.7065323317 -0.7985786817 -0.6225617398
6.7156120822 -0.8052698911 -0.6158573367
6.8515005489 -0.8124154272 -0.6325944736
6.8708229248 -0.8120080072 -0.6367664292
6.7223066835 -0.8005682808 -0.6230441151
6.7804399587 -0.8122567598 -0.6193376262
6.8698182532 -0.7974263864 -0.6549335318
6.8577455178 -0.8141653301 -0.6315740517
6.8443859519 -0.8140670965 -0.6291678477
6.8800922069 -0.7995554109 -0.6541987799
6.6312684780 -0.7823488964 -0.6287414875
6.6696160924 -0.7887117175 -0.6279928900
6.7190044570 -0.7899239408 -0.6358193495
6.6271020978 -0.7891201079 -0.6194279613
6.6622606977 -0.7886103448 -0.6267276358
6.6655011272 -0.7822939735 -0.6352932003
6.8650503151 -0.7944910340 -0.6577260654
6.6762551677 -0.7879833863 -0.6301670435
6.7219334442 -0.7879783639 -0.6388233699
6.7831695805 -0.7820311705 -0.6574238842
6.8831105954 -0.7866468899 -0.6700863453
6.7601239526 -0.7760526700 -0.6601912439
6.7061607894 -0.7782206212 -0.6479608116
6.7760857920 -0.7831705827 -0.6548290844
6.7456044788 -0.7711557349 -0.6632428717
6.7832078389 -0.7774577361 -0.6627236851
6.7585666556 -0.7772205627 -0.6585590770
6.7123148489 -0.7739064022 -0.6540623758
6.5738693894 -0.7635325371 -0.6411273526
6.7605323598 -0.7642544989 -0.6739190236
6.6809638133 -0.7662128428 -0.6573183855
6.7449080302 -0.7655766576 -0.6695741587
6.5718377772 -0.7458082040 -0.6612739749
6.6566373629 -0.7540998884 -0.6669544817
6.7094032007 -0.7644729493 -0.6644553246
6.6057876130 -0.7625638279 -0.6479984995
6.6610430539 -0.7629556412 -0.6574992786
6.8821327736 -0.7584183558 -0.7017103262
6.7031919703 -0.7507597304 -0.6790767679
6.8205669475 -0.7596590649 -0.6897955505
6.6500114710 -0.7467416720 -0.6742052948
6.7364404737 -0.7547016380 -0.6805997004
6.7114112476 -0.7432025304 -0.6885392756
6.6910708253 -0.7472263191 -0.6807541186
6.8744089918 -0.7643465214 -0.6940679605
6.8718466739 -0.7477913616 -0.7112579273
6.6739589431 -0.7285595241 -0.6976894835
6.6385076301 -0.7191901486 -0.7015676967
6.7639150225 -0.7386535479 -0.7024180062
6.8302471181 -0.7375981165 -0.7149555884
6.7772911203 -0.7345025511 -0.7091403282
6.6143432801 -0.7191501619 -0.6974523938
6.5643659034 -0.7323550195 -0.6747900005
6.5900515838 -0.7216155826 -0.6906469654
6.6686430275 -0.7391255743 -0.6855221373
6.8071898432 -0.7183955913 -0.7302644352
6.7188770524 -0.7100228231 -0.7239063251
6.8163218527 -0.7220677964 -0.7281704032
6.6894766095 -0.7209905270 -0.7083037173
6.8375007117 -0.7296858182 -0.7241948794
6.6613653305 -0.7127661166 -0.7117302734
6.6879957448 -0.7151377808 -0.7137976578
6.8649741655 -0.7287328855 -0.7296608549
6.5811477577 -0.7120316435 -0.6992186422
6.6465579715 -0.7020061765 -0.7198371914
6.7220923015 -0.7041036720 -0.7302399841
6.5776199916 -0.6972484785 -0.7131305946
6.7524722843 -0.7057110981 -0.7336751346
6.7174076463 -0.7008130573 -0.7326934750
6.7717695618 -0.7087039862 -0.7339238669
6.7823083231 -0.7017670982 -0.7424633441
6.5577703936 -0.7037752166 -0.7034574363
6.6489730222 -0.7054486319 -0.7168604646
6.7026097248 -0.6924216291 -0.7383880187
6.8534270105 -0.6812321752 -0.7724142463
6.8491437989 -0.6860319720 -0.7674029897
6.5924031831 -0.6817923474 -0.7304957980
6.8557565425 -0.6855833538 -0.7688570059
6.5767344703 -0.6831056489 -0.7268246452
6.8577421880 -0.6985306952 -0.7574873766
6.7785188509 -0.6797986425 -0.7618233718
6.6734062546 -0.6806910397 -0.7443412971
6.6961941808 -0.6820872437 -0.7466966900
6.6860678927 -0.6785825466 -0.7482529996
6.7548095690 -0.6718887150 -0.7652002665
6.7382365749 -0.6706368990 -0.7637005981
6.7051703510 -0.6653994750 -0.7631810927
6.5959838338 -0.6602079108 -0.7505432827
6.5646688949 -0.6673372315 -0.7391409630
6.6743903232 -0.6618565236 -0.7614950879
6.5695264503 -0.6529481378 -0.7528974249
6.6841910166 -0.6720875924 -0.7538167499
6.7208950069 -0.6526305124 -0.7763809201
6.8275961971 -0.6536669966 -0.7918540648
6.7772966900 -0.6670102554 -0.7730777040
6.8684252817 -0.6622479995 -0.7909807385
6.8829475077 -0.6636392854 -0.7920488182
6.7456354704 -0.6631432377 -0.7714412065
6.7212723900 -0.6574870177 -0.7724071603
